# .PCD v0.7 - Point Cloud Data file format
VERSION 0.7
FIELDS x y z intensity
SIZE 4 4 4 4
TYPE F F F F
COUNT 1 1 1 1
WIDTH 1386
HEIGHT 1
VIEWPOINT 0 0 0 1 0 0 0
POINTS 1386
DATA ascii
6.5698977 6.8299532 2.8208423 0
-3.5682857 1.0413332 2.7306311 0
-3.545073 1.2572591 2.732595 0
-0.65367603 3.2828524 2.5923986 90
-0.21354711 3.8290727 2.6091895 90
-0.68705213 3.9848359 2.5412979 90
-2.3183742 5.2240553 2.3609788 0
-2.1442673 5.0587635 2.5672171 0
-0.57995254 6.33641 2.5519259 0
-0.39819556 6.3385653 2.5283735 0
-2.5012946 5.1769252 2.385618 0
-2.2157352 5.3535261 2.6295886 0
-1.4380176 5.9162722 2.5950844 0
-2.3022516 5.6717477 2.4244001 0
-2.3702345 5.9902525 2.4839964 0
8.852396 -9.2743587 4.0500507 0
9.0787048 -9.2246504 3.9829059 0
8.3733253 -9.1237202 4.0874853 0
8.4944811 -8.8527193 4.010232 0
7.0681882 -9.4387379 3.9757237 0
6.5733905 -9.4008884 4.160768 0
7.152905 -9.2180796 3.9008598 0
7.4059839 -9.0475721 4.145896 0
8.6314144 -8.1956892 4.0607848 0
6.9248123 -9.0256395 4.0522604 0
7.0216298 -8.8611574 3.9977813 0
7.4506588 -8.4108467 4.1442728 0
2.383718 -10.438364 3.8186958 90
2.7226329 -10.426598 3.8073337 0
2.215713 -10.428899 3.8199191 80
2.4677939 -9.9815922 3.9204342 80
1.7987723 -10.025411 3.9678886 80
2.3627944 -9.7372036 3.8237357 90
2.6831317 -9.703825 3.799793 80
2.8470936 -9.5823183 4.0152941 90
3.354466 -9.147337 3.8134413 90
0.83760738 -10.322138 3.8542271 90
1.2093606 -10.295136 3.8182776 80
2.3948011 -9.5433254 4.0136671 90
2.6736546 -9.3129044 3.900789 85
3.100409 -8.9515724 3.7286003 90
2.1597395 -9.2607927 3.9015024 90
0.91453362 -9.6399517 3.8794775 90
1.1314759 -9.5225315 3.8139291 80
2.4488215 -8.6692467 3.874846 90
0.57343578 -9.6204624 3.9051647 80
0.48467779 -9.2497997 3.7718055 85
1.634635 -8.572547 3.6423132 80
-1.129374 -7.9352078 3.5335615 80
-4.3851085 -1.4118314 3.0215864 0
-4.295413 -1.2546034 3.1118743 0
6.3799286 6.7260838 3.0142734 0
6.5876083 6.6760073 3.0283172 0
-3.3661942 0.93281317 3.1472409 0
-3.4583039 0.94789624 2.9354594 0
-3.3703177 1.0719697 3.0343497 0
-2.4286115 2.5094199 2.9777529 90
-0.92920935 3.8786967 2.7950337 80
-0.74784315 4.2395153 2.8346162 90
-1.1316675 4.4582748 2.9790375 0
-1.9866168 4.7061381 2.9891868 0
-2.0516171 4.7619777 2.7565765 0
-1.7762142 5.1282487 2.7673905 0
-1.5425279 5.3221726 2.7593443 0
-0.33536497 6.2366085 2.7553542 0
-1.5485091 5.5621543 2.8091729 0
-1.2600583 5.9476943 2.8379569 0
-0.56847978 6.3187509 2.8090641 0
-2.6869805 5.1342916 2.6845531 0
-2.159858 5.5271707 2.6487947 0
-2.0556159 5.6574731 2.9263568 0
-1.6158725 5.9695196 2.8150642 0
-1.2324023 6.1730227 2.8823326 0
-2.2836213 5.9009819 2.7360115 0
-1.9776487 6.0592427 2.7111325 0
-1.555328 6.3279171 2.6926482 0
-1.5862 6.6462207 2.7595024 0
9.0520744 -9.1808691 4.2539754 0
8.2933226 -8.9715405 4.2937856 0
6.7890506 -9.5972786 4.2786274 0
7.3243074 -9.2556934 4.2196684 0
8.4970665 -8.5488367 4.3063059 0
6.4291868 -9.4685211 4.4500589 0
7.8670878 -8.6298723 4.3327541 0
6.7552929 -8.9898109 4.2773523 0
7.0944796 -8.8605013 4.2780399 0
7.319963 -8.6472397 4.2243118 0
7.8839483 -8.3381052 4.2077274 0
6.8231139 -8.7356882 4.171104 0
2.0295725 -10.429214 4.1206279 90
1.3686924 -10.301176 4.1059289 90
2.1763844 -9.7915726 4.1334953 90
2.9287848 -9.4772577 4.2389479 90
3.1685314 -9.3704205 4.1826701 90
1.3223963 -10.058773 4.2083588 90
1.8120155 -9.9282513 4.2144661 80
2.4605393 -9.2081518 4.128808 90
2.7602901 -9.1862278 4.1051335 90
0.98108482 -9.8653488 4.2545905 80
2.1544337 -9.2298918 4.1570268 90
2.6565905 -8.9886608 4.0153518 90
0.62858391 -9.9006815 4.0086594 90
0.87833977 -9.6867313 4.1891804 80
1.5089393 -9.3025255 4.2425847 90
0.60877132 -9.5033617 4.141717 80
0.81357288 -9.4317999 4.0887051 90
-4.4379182 -1.3970513 3.3005438 0
-4.2266541 -1.3055923 3.4840374 0
6.3482981 6.6536379 3.2368975 0
6.5810566 6.7011714 3.2873762 0
-1.568691 5.3560486 3.0328665 0
-1.8557075 5.4443502 3.1141455 0
-0.56497627 6.3134966 3.073477 0
-0.44294906 6.4101319 3.0786994 0
-0.99532819 6.3921208 3.1672883 0
8.8807793 -9.5550194 4.6621647 0
9.1358576 -9.3212528 4.6282759 0
6.1906195 -9.7968016 4.5719595 0
1.5448456 -10.249039 4.3721442 80
1.4036956 -10.096046 4.6187339 80
1.7802262 -9.7072811 4.4073114 90
1.2223668 -9.6395426 4.4254351 90
1.0465503 -9.6547899 4.450788 90
0.046427727 -8.8479147 4.2275276 90
-0.32853222 6.2247839 3.2764382 0
-0.58170533 6.3397379 3.3545911 0
8.8064528 -9.422534 4.9006119 0
9.0640306 -9.2021141 4.8705835 0
15.584148 -0.79238081 -0.099931933 0
15.529295 -0.61632466 -0.10154073 0
15.494972 0.077008247 -0.11968187 0
15.358555 0.32716894 -0.12132864 0
12.056934 -4.9771461 -0.1657999 0
12.409371 -4.2245359 -0.15751332 0
15.064615 0.63981295 -0.11825798 0
11.651458 -5.3601136 -0.16283078 0
11.729386 -5.2473493 -0.16113636 0
11.779822 -4.9455171 -0.14964601 0
12.111129 -4.6820464 -0.15664791 0
12.211852 -4.3446455 -0.14976974 0
12.411153 -4.0704041 -0.15277381 0
12.485288 -3.8812802 -0.15193753 0
12.56714 -3.6953275 -0.15225191 0
12.706987 -3.3894358 -0.15463226 0
12.784958 -3.0581803 -0.15409385 0
15.006048 0.96817541 -0.12834999 0
10.779709 -6.2249188 -0.17533885 0
10.900446 -6.0544548 -0.16909921 0
11.057293 -5.9246016 -0.16731089 0
11.61374 -4.9877453 -0.14294438 0
12.430898 -3.4859271 -0.13839455 0
12.570711 -3.1184311 -0.14040624 0
12.724477 -2.8950019 -0.14763336 0
12.769747 -2.7016196 -0.14862192 0
12.825711 -2.4435027 -0.15056545 0
12.905123 -2.1250787 -0.15523875 0
10.33756 -6.5424824 -0.18233629 0
10.550379 -6.2714796 -0.17053819 0
12.897215 -1.988955 -0.15470898 0
12.979197 -1.407824 -0.16439506 0
12.981791 -1.2111244 -0.16700301 0
9.7953205 -6.7076931 -0.18027306 0
9.973505 -6.6145964 -0.17763066 0
12.967616 -0.94954658 -0.17015384 0
7.5991178 -10.127764 -0.20375417 0
7.4336119 -10.185555 -0.21208955 0
6.9901385 -10.15484 -0.22347815 0
7.239522 -10.083529 -0.21095705 0
9.639164 -5.0248976 -0.22687416 0
11.107448 -2.774421 -0.20022283 0
6.7226224 -10.092146 -0.22820483 0
9.2781372 -5.1722631 -0.22205223 0
6.4520607 -9.9384079 -0.22763044 0
6.1211386 -10.010359 -0.24534547 0
5.8633156 -9.8377247 -0.24439196 0
14.807278 1.352891 -0.13545351 0
12.712701 -2.211421 -0.14137752 0
12.692932 -1.814744 -0.14006449 0
12.784478 -1.6375818 -0.14779587 0
14.600191 1.7257183 -0.14321575 0
12.746017 -1.0585301 -0.15144934 0
12.870556 -0.8143878 -0.16538368 0
14.572132 1.9689343 -0.15414184 0
14.403798 2.0903029 -0.15278187 0
12.765174 -0.61892939 -0.16168512 0
14.215397 2.2009745 -0.15020271 0
12.701002 -0.43126893 -0.16148496 0
12.723307 -0.24449921 -0.1685303 0
12.752369 -0.056037426 -0.17667668 0
12.808683 0.19975996 -0.19001101 0
14.066194 2.4828842 -0.1595218 0
10.316011 -3.9995854 -0.19308862 0
10.436799 -3.8311672 -0.19190583 0
10.581095 -3.5547328 -0.18780395 0
10.747892 -3.2927709 -0.18870762 0
10.789111 -2.9689457 -0.17856877 0
10.994245 -2.724792 -0.18843508 0
11.038314 -2.4129355 -0.18373102 0
11.20723 -2.2016346 -0.19528805 0
12.493162 0.17376041 -0.16519353 0
13.944523 2.7710168 -0.17128669 0
9.6522894 -4.7258816 -0.20266885 0
11.135041 -2.0190752 -0.18525639 0
11.178945 -1.8226416 -0.18730269 0
11.2948 -1.5894635 -0.19733523 0
11.298852 -1.2805951 -0.1979643 0
12.358228 0.52226305 -0.1691125 0
13.700781 2.8422787 -0.16527678 0
13.827343 3.0602624 -0.18444133 0
9.0528898 -5.1313787 -0.20839572 0
9.2271576 -4.8605909 -0.19172965 0
11.14295 -1.4061042 -0.1817628 0
11.171771 -1.0619588 -0.18653508 0
11.275549 -0.82420969 -0.20041265 0
11.413508 -0.63060713 -0.21820508 0
12.293566 0.7534821 -0.17480931 0
12.335791 0.94385505 -0.18744157 0
13.43135 3.0574081 -0.16781852 0
13.51935 3.2623427 -0.18504347 0
8.7667189 -5.0757232 -0.19156076 0
9.1646614 -4.0143437 -0.11731569 90
9.5838289 -3.6695633 -0.1192301 90
9.7669582 -2.8897562 -0.22178543 0
9.9711466 -2.5650303 -0.22570546 0
11.014081 -0.80396068 -0.17361878 0
11.166466 -0.42555809 -0.19761916 0
11.319801 -0.22621274 -0.21927689 0
12.071556 1.068994 -0.17452879 0
12.157694 1.330307 -0.19565579 0
13.196274 3.3581271 -0.17871124 0
8.6398392 -4.3458409 -0.25548813 0
8.9375935 -3.9031997 -0.22892989 0
9.0215607 -3.6927819 -0.14881025 90
9.1794806 -3.5322492 -0.13499665 90
9.4084473 -3.2878597 -0.18728556 36
9.619772 -3.0466747 -0.21694398 0
9.6871042 -2.651655 -0.19878879 0
9.8503036 -2.4126117 -0.20444773 0
9.9564571 -2.1897326 -0.20692746 0
10.058953 -1.9201267 -0.20993866 0
10.254712 -1.3736683 -0.22399893 0
11.104702 -0.03929162 -0.20354362 0
11.099596 0.25256014 -0.21500552 0
11.872854 1.5537031 -0.18882449 0
11.855534 1.7299209 -0.1990678 0
12.954073 3.6489546 -0.19019796 0
5.6972752 -9.7546406 -0.24604128 0
6.6781082 -7.5325069 -0.25564903 0
6.8371887 -7.3537312 -0.23490269 0
8.4316778 -4.2820005 -0.23563498 0
8.568367 -4.1183567 -0.22554722 0
8.6715136 -3.9206314 -0.21129739 0
8.8815861 -3.7268019 -0.20705409 0
9.0711098 -3.4061944 -0.19321033 90
9.965641 -1.5950069 -0.19041289 0
10.095811 -1.2698436 -0.20285672 0
10.197103 -0.98681486 -0.21564381 0
10.216623 -0.74561894 -0.2204241 0
10.858424 0.41146398 -0.19778658 0
10.94068 0.56803536 -0.21433909 0
11.713552 1.9230821 -0.20263946 0
12.630337 3.7979269 -0.18935813 0
6.4115992 -7.4262781 -0.25351781 0
6.5132866 -7.260623 -0.23483935 0
8.2327585 -4.2183161 -0.21686149 0
8.8007631 -3.1226373 -0.26123554 0
8.9081259 -2.8372369 -0.24519771 0
8.9264936 -2.6202142 -0.22814766 0
9.1220112 -2.4216835 -0.23727311 0
9.1915913 -2.1421633 -0.22767292 0
9.2924843 -1.9179094 -0.2291929 0
9.3907852 -1.7303456 -0.23501068 0
10.080947 -0.81409717 -0.20185111 0
10.135833 -0.54081547 -0.21370153 0
10.123212 -0.30215681 -0.21826281 0
10.843613 0.74092555 -0.21432881 0
10.844116 0.93471575 -0.22633933 0
11.449278 1.8243995 -0.17741635 0
11.562515 2.169301 -0.21038166 0
11.473417 2.316452 -0.21584314 0
12.532581 3.9892666 -0.20071313 0
6.1747036 -7.5537391 -0.27352864 0
6.2833223 -7.3861418 -0.25391504 0
8.074213 -3.5385766 -0.24097651 0
8.3177128 -3.3306441 -0.23579401 0
8.4459953 -3.0453181 -0.21497646 0
8.6568747 -2.8231859 -0.21457045 0
8.7381363 -2.5476265 -0.19834693 0
9.2212 -1.839058 -0.21526812 0
9.3626337 -1.5374684 -0.22405902 0
9.3315363 -1.2323664 -0.21200477 0
9.4719677 -0.91937137 -0.23116471 0
10.068345 -0.10789299 -0.21793728 0
10.070675 0.1316433 -0.2287295 0
10.111167 0.29492617 -0.24223635 0
10.612187 1.1123378 -0.21554188 0
11.349481 2.5081344 -0.22340626 0
12.310419 4.1007328 -0.20198947 0
12.323111 4.2810659 -0.21702033 0
4.5871744 -9.4119711 -0.27883083 0
5.7953634 -7.4499025 -0.27847081 0
5.9690456 -7.2619019 -0.25360441 0
6.5804973 -5.9162312 -0.26136273 0
7.8430634 -3.6549768 -0.2391575 0
7.9492884 -3.567081 -0.234901 0
8.1188107 -3.2396502 -0.20597491 0
8.249671 -2.655786 -0.24981786 0
8.396369 -2.3876417 -0.23918858 0
8.6037197 -2.1980441 -0.25115237 0
8.7227621 -1.8810397 -0.2442452 0
8.7824354 -1.5807652 -0.23548676 0
8.8977165 -1.3352429 -0.24454054 0
9.2731905 -1.1344467 -0.20129143 0
9.3350925 -0.84561312 -0.209866 0
9.422102 -0.55257535 -0.22690092 0
9.4242163 -0.31714177 -0.23304787 0
9.8837347 0.22199059 -0.20918602 0
9.8792028 0.53220797 -0.2267741 0
10.367674 1.3643913 -0.21098503 0
11.038218 2.6571913 -0.21665984 0
11.961205 4.1980834 -0.19867337 0
4.4383163 -9.3271265 -0.28163409 0
6.2339778 -5.9051733 -0.26833275 0
6.415617 -5.8142099 -0.25255597 0
7.6073828 -3.3134508 -0.27401084 0
7.7189231 -3.1051576 -0.25141889 0
7.919034 -2.837291 -0.23294882 0
8.0173607 -2.5366945 -0.24979343 0
8.2434216 -2.2787042 -0.29758939 0
8.2918129 -2.0088303 -0.25231504 0
8.3933172 -1.7409589 -0.26837081 0
8.5461969 -1.4636112 -0.23364775 0
8.8526735 -1.170918 -0.23144646 0
8.8621321 -0.96466267 -0.22930171 0
9.0244207 -0.71815097 -0.25862539 0
9.2975855 -0.19080961 -0.21742259 0
9.362628 0.010832191 -0.23676507 0
9.7895346 0.70612073 -0.22725461 0
9.8039312 0.8683461 -0.24138339 0
10.219494 1.544336 -0.21180449 0
10.230406 1.6927575 -0.22577353 0
10.828441 2.8475928 -0.22127312 0
4.2948647 -9.2206068 -0.28293124 0
4.1760435 -8.9797373 -0.27404216 0
5.5505743 -6.5657058 -0.20527588 0
5.6559238 -6.4210091 -0.18673886 0
5.9786477 -5.7353916 -0.25567535 0
6.373518 -4.770628 -0.25080124 0
7.4933562 -2.9529018 -0.29604763 0
7.6096935 -2.683655 -0.26310763 0
7.7543516 -2.4047849 -0.25883314 0
7.9344587 -2.1235399 -0.25416294 0
8.0835495 -1.836648 -0.22018065 0
8.1781511 -1.5166359 -0.24823903 0
8.3812056 -1.3517028 -0.23842435 0
8.4505119 -1.0504196 -0.23949964 0
8.4807787 -0.82053745 -0.24095994 0
8.8332644 -0.50108182 -0.22564498 0
8.8869905 -0.30005419 -0.24138273 0
8.9710827 -0.031220794 -0.2688323 0
9.1957693 0.25106084 -0.22420073 0
9.2088394 0.50907552 -0.24448955 0
9.6875267 1.0717436 -0.24399786 0
9.7239418 1.2494155 -0.26433018 0
10.101393 1.8769464 -0.23127666 0
10.101155 1.9751296 -0.24069031 0
10.662281 2.9960618 -0.2256282 0
10.611507 3.0905087 -0.23192935 0
3.9495873 -8.9519815 -0.28637147 0
4.9805412 -6.8114543 -0.081983887 0
5.3406363 -6.4157224 -0.20122573 0
5.4475746 -6.319859 -0.18680514 0
5.6967335 -5.6641054 -0.25800696 0
6.084414 -4.9562416 -0.28437203 0
6.2638278 -4.8181705 -0.25962037 0
7.3136444 -2.7998514 -0.24863347 0
7.3180976 -2.5365367 -0.25783107 0
7.4547434 -2.2515578 -0.24823684 0
7.6161094 -2.0481358 -0.26549599 0
7.7967486 -1.7273828 -0.25824246 0
7.9255157 -1.4666232 -0.25466067 0
8.039772 -1.1760596 -0.25536257 0
8.1961107 -0.92028117 -0.25948539 0
8.37959 -0.65679103 -0.24414201 0
8.4579973 -0.41460061 -0.2394557 0
8.5351181 -0.14302611 -0.24417733 0
8.7581663 0.067662835 -0.23499624 0
8.8517799 0.3360821 -0.27121896 0
9.0552702 0.65956783 -0.23367114 0
9.1018009 0.89468288 -0.2622129 0
9.4581928 1.263494 -0.23435394 0
9.3901672 1.3538783 -0.23543058 0
9.8543253 2.0415206 -0.2260832 0
9.7702084 2.1914515 -0.23480268 0
11.222277 4.6411009 -0.21630013 0
11.291119 4.8836479 -0.24018878 0
3.5692608 -8.910387 -0.30859309 0
3.7800198 -8.6565704 -0.27787569 0
4.6943665 -6.8994374 -0.28369203 0
4.9202766 -6.3952832 -0.2224195 0
5.149579 -6.1310673 -0.18439065 0
5.3240247 -5.7666974 -0.28857565 0
5.3305807 -5.6174617 -0.26972356 0
5.799211 -4.8759851 -0.28143927 0
6.1019135 -4.1993637 -0.27839985 0
6.2538176 -4.0975032 -0.25838321 0
7.1327329 -2.3467846 -0.2538791 0
7.2380099 -2.0978804 -0.26285723 0
7.363677 -1.8248925 -0.26733205 0
7.4909687 -1.5866907 -0.28409836 0
7.6212187 -1.3086301 -0.25413868 0
7.7749295 -1.0722632 -0.24624473 0
7.9700599 -0.81207132 -0.27329934 0
8.0384808 -0.54092425 -0.25272787 0
8.219305 -0.275424 -0.25580081 0
8.386838 0.01669538 -0.24407592 0
8.4353151 0.22123778 -0.2523022 0
8.5643311 0.51813376 -0.25264823 0
8.6743984 0.70508313 -0.27351618 0
8.8623905 1.0072331 -0.23933695 0
9.0725775 1.3556129 -0.23431712 0
9.2026482 1.6260493 -0.24394473 0
9.2187929 1.8473567 -0.27156749 0
9.6354666 2.4099054 -0.2480654 0
10.856803 4.8366256 -0.22588474 0
10.999539 4.9775329 -0.24241075 0
3.4384282 -8.8048182 -0.31068933 0
3.311959 -8.6924953 -0.31229603 0
4.4243665 -6.7804923 -0.29018638 0
5.013217 -5.5917387 -0.28496188 0
5.4499044 -4.7899981 -0.28400055 0
5.6027818 -4.7911825 -0.27678898 0
5.8300176 -4.1339197 -0.27390364 0
6.0088539 -3.7961888 -0.3058545 0
6.0900917 -3.6663244 -0.27821916 0
6.0972266 -3.366838 -0.30317792 0
6.958107 -2.1923256 -0.2526463 0
6.9590855 -1.969546 -0.26984555 0
7.0853581 -1.7053335 -0.27861533 0
7.2341566 -1.419398 -0.27812019 13.333333
7.3744082 -1.156449 -0.26358321 0
7.5253124 -0.90096819 -0.26591477 0
7.648809 -0.66134077 -0.26123908 0
7.8009024 -0.38607222 -0.26845962 0
7.9586005 -0.083915591 -0.25933361 0
8.0812683 0.12435722 -0.2728177 0
8.2421389 0.40525186 -0.2728534 0
8.3323727 0.63761449 -0.27337569 0
8.4646645 0.92514241 -0.26343733 0
8.6740189 1.2662437 -0.24367504 0
8.6745472 1.5476887 -0.28033063 0
8.9113998 1.7406981 -0.22649461 0
9.0289125 2.0191207 -0.27386045 0
9.1379604 2.3550851 -0.20436306 0
9.8671122 3.4276748 -0.22928512 0
9.7461281 3.5891805 -0.2418482 0
10.087154 3.7653267 -0.27625462 0
10.66388 5.0100527 -0.23853673 0
10.593704 5.1252418 -0.24845377 0
3.1417944 -8.4749689 -0.31065291 0
4.1332412 -6.7873206 -0.3112613 0
4.749424 -5.5125136 -0.2928209 0
5.2210941 -4.7594771 -0.292377 0
5.4613681 -4.1088066 -0.28513107 0
5.5512934 -3.9505405 -0.28483191 0
5.7296205 -3.6789823 -0.28945783 0
5.7924414 -3.3824716 -0.29407322 0
5.968719 -3.2027576 -0.28531909 0
5.9762559 -2.930073 -0.2769056 0
6.785202 -1.8145916 -0.26843178 0
6.9417839 -1.6443832 -0.26124343 0
7.0196743 -1.4190255 -0.23620343 0
7.1794953 -1.0847282 -0.24243873 0
7.2719426 -0.80339605 -0.24533783 0
7.4094763 -0.52847362 -0.26280221 0
7.5501652 -0.22430813 -0.27319068 0
7.6412783 0.023644447 -0.27868903 0
7.8442698 0.24337018 -0.27026525 0
7.9387732 0.53519905 -0.27397281 0
8.108572 0.8132199 -0.27035213 0
8.2688885 1.1161454 -0.25734034 0
8.2802334 1.2649851 -0.28078297 0
8.4669647 1.6345141 -0.26682055 0
8.8124619 2.0693216 -0.25945437 0
9.069603 2.6069241 -0.23041818 0
9.1652966 2.911031 -0.27543411 0
9.5792503 3.7071614 -0.24849918 0
10.381998 5.1788688 -0.2501542 0
11.519398 7.4283528 -0.2266629 0
2.8830085 -8.5560474 -0.33505604 0
3.9266415 -6.458796 -0.29685509 0
4.3706379 -5.5426817 -0.32487017 0
4.5067596 -5.3455348 -0.290654 0
4.6195192 -5.2282534 -0.26800814 0
4.8999977 -4.5925827 -0.28933287 0
5.2208366 -4.1256199 -0.30242768 0
5.3031464 -3.7785969 -0.28314042 0
5.4797616 -3.5426726 -0.27261075 0
5.5735569 -3.2648637 -0.29228157 0
5.7330761 -2.9553037 -0.28747067 0
5.8412642 -2.7271137 -0.25746205 40
5.9032607 -2.540077 -0.26068547 80
6.6160293 -1.5729105 -0.18292576 0
7.2435374 -0.30661011 -0.22957091 0
7.2624965 -0.079305947 -0.23472627 0
7.3970895 0.1707418 -0.27476034 0
7.5471454 0.42791629 -0.26345003 0
7.663156 0.67298985 -0.26124695 0
7.8741236 0.97790456 -0.26468074 0
8.0052099 1.2400305 -0.26783597 0
8.1120377 1.5167477 -0.29630455 0
8.2365913 1.8034718 -0.26571152 0
8.49543 2.1097152 -0.23576547 0
8.5163383 2.2496471 -0.25821659 0
8.6013365 2.4355912 -0.29289797 0
8.9365816 2.9820867 -0.27076456 0
9.3717346 3.8483677 -0.25720268 0
10.048519 5.1736722 -0.24465089 0
11.348991 7.6307187 -0.24425796 0
2.6491485 -8.1150484 -0.32574227 0
2.887816 -8.0846968 -0.30509758 0
3.4682274 -6.4398441 -0.33281615 0
3.6572061 -6.3980255 -0.3130919 0
4.2207646 -5.2221813 -0.29975477 0
4.5764775 -4.5121765 -0.30380854 0
4.8470254 -3.9396362 -0.29847583 0
5.0801463 -3.6861081 -0.29631829 0
5.2132316 -3.3961182 -0.30190057 0
5.3213205 -3.1507432 -0.29999137 0
5.482687 -2.9009881 -0.29450151 0
5.6242929 -2.621186 -0.29563582 0
5.7252402 -2.3635638 -0.28624168 0
5.7705092 -2.1196208 -0.25442958 64
7.1236682 0.062107623 -0.19745287 0
7.1830826 0.33674228 -0.262191 0
7.2990708 0.57202941 -0.28617123 0
7.4491644 0.8255918 -0.28149149 0
7.6053786 1.0932205 -0.29887614 0
7.6938539 1.259514 -0.27143341 0
7.8577619 1.6261942 -0.28180709 0
7.9263806 1.9219486 -0.25223687 0
8.1685123 1.9863641 -0.28795436 0
8.2109394 2.3921559 -0.25490811 0
8.5831642 3.0229599 -0.25630876 0
8.6422424 3.1718481 -0.2805731 0
9.1290808 3.9461808 -0.26090294 0
9.7718792 5.4296846 -0.26789042 0
10.038866 5.4698329 -0.27489251 0
10.994051 7.5708742 -0.2417257 0
2.4764578 -7.9643774 -0.33044413 0
2.3760259 -7.8360734 -0.33100006 0
3.3805153 -6.1969581 -0.31922871 0
3.9862039 -5.0937767 -0.30598545 0
3.9247088 -4.883625 -0.28789034 0
4.3264351 -4.3215342 -0.29998603 0
4.4487896 -3.9483192 -0.33912587 0
4.6417222 -3.8579607 -0.30363917 0
4.753242 -3.4531076 -0.31287152 0
4.9365711 -3.2322419 -0.30408868 0
5.0374432 -2.9972451 -0.31302354 0
5.2105098 -2.7735782 -0.30585054 0
5.373271 -2.4684575 -0.30008024 0
5.4737253 -2.1952071 -0.29439116 0
5.624979 -2.0542169 -0.25350109 0
6.9551196 0.50501424 -0.25870311 0
7.0255594 0.69370306 -0.2748813 0
7.1910729 0.981866 -0.27485615 0
7.2894516 1.2389894 -0.28869033 0
7.4402351 1.4502786 -0.27184018 0
7.5689478 1.7360773 -0.28393561 0
7.7805986 1.9760906 -0.2475795 0
7.796875 2.2112994 -0.29188767 0
8.0196753 2.5809984 -0.27189842 0
8.3117485 3.1907382 -0.26716241 0
8.4062662 3.3120074 -0.289361 0
8.8387203 4.1284537 -0.27541795 0
9.3565836 5.369194 -0.25814012 0
9.6436033 5.5752692 -0.28213292 0
10.80168 7.738256 -0.25747022 0
2.1463373 -7.6599607 -0.34006098 0
2.3772612 -7.487525 -0.31005901 0
3.1889639 -6.0953689 -0.32795128 0
3.1240551 -5.8418226 -0.31251469 0
3.7094548 -4.9706054 -0.31938076 0
4.0649762 -4.1978827 -0.31044951 0
4.1994748 -3.785008 -0.34104088 0
4.370275 -3.6882877 -0.30456969 0
4.5063567 -3.3247766 -0.31682864 0
4.6449757 -3.12093 -0.30012804 0
4.7528877 -2.9009299 -0.3099094 0
4.9526291 -2.6002703 -0.29877615 0
5.0581512 -2.3981092 -0.30979314 0
5.183887 -2.0859015 -0.28641328 0
6.748136 0.6547451 -0.2421876 0
6.7676411 0.86773062 -0.27966467 0
6.8621292 1.0750132 -0.28499857 0
7.0258179 1.3160853 -0.28858992 0
7.1806655 1.6141291 -0.28939608 0
7.3113089 1.9167196 -0.28975683 0
7.4544015 2.1983228 -0.26197439 0
7.8030281 2.6820886 -0.27529034 0
7.8090229 2.9291692 -0.31861883 0
7.9753704 3.2529242 -0.26290196 0
8.2728186 3.4067168 -0.297638 0
8.392848 4.1483526 -0.2680206 0
8.5917377 4.1955247 -0.27813074 0
9.253109 5.54355 -0.27644765 0
10.460024 7.6633568 -0.25446147 0
10.414896 7.9118752 -0.27633324 0
1.9941113 -7.4431 -0.34083819 0
2.9907815 -5.8807096 -0.32875079 0
2.8733561 -5.7216878 -0.32734856 0
3.3665984 -4.6949034 -0.32659513 0
3.5044003 -4.6996217 -0.31165299 0
3.7915993 -4.0603185 -0.32418224 0
4.0795822 -3.5400712 -0.31741929 0
4.2375612 -3.2566907 -0.3407459 0
4.357852 -2.9719844 -0.31102473 0
4.5200377 -2.7378001 -0.32030812 0
4.6540418 -2.4625766 -0.31258911 0
4.8077817 -2.1544552 -0.30553484 0
4.9400439 -1.9761541 -0.28033713 0
6.3358216 0.88674879 -0.23447935 0
6.4973593 0.99854684 -0.28278613 0
6.6192985 1.2432038 -0.30015576 0
6.7412677 1.5101207 -0.29356277 0
6.9441032 1.7729594 -0.30684078 0
7.0430107 2.0682054 -0.30119127 0
7.1910009 2.3026457 -0.26496235 0
7.2787395 2.5397658 -0.31912887 0
7.4709516 2.8345337 -0.28554583 0
7.7487679 3.4691799 -0.28949437 0
7.8664742 3.5177472 -0.3005307 0
8.1570454 4.3007517 -0.28467697 0
8.3548412 4.3597107 -0.29541525 0
8.9216881 5.5770206 -0.27938506 0
9.886097 7.6381989 -0.25930431 0
10.117701 7.7255349 -0.26383972 0
1.8850892 -7.1146479 -0.33202285 0
2.6786458 -5.791532 -0.35301501 0
2.6059365 -5.5947504 -0.34499279 0
3.235826 -4.496954 -0.32141957 0
3.587595 -3.8885913 -0.3282598 0
3.8877995 -3.3659644 -0.31751284 0
3.9668555 -3.0626354 -0.33134383 0
4.1382093 -2.9102423 -0.31967571 0
4.2418909 -2.6220698 -0.3254725 0
4.4218893 -2.294486 -0.31848669 0
4.5576596 -2.0249686 -0.32054365 0
4.6725168 -1.8346913 -0.29973698 0
4.723516 -1.6161767 -0.24051864 0
6.2040286 0.94093728 -0.23741183 0
6.2179251 1.1468223 -0.29328808 0
6.3618946 1.3800839 -0.29844731 0
6.5280385 1.6875045 -0.30866399 0
6.6653681 1.9147923 -0.32395095 0
6.771121 2.1655519 -0.29580814 0
6.9094601 2.434696 -0.29597417 0
7.0410843 2.6854126 -0.33778372 0
7.1833916 2.9195435 -0.29041216 0
7.5183811 3.5250814 -0.29297215 0
7.5201831 3.7104759 -0.32325637 0
7.9298582 4.3689933 -0.29163307 0
8.6000252 5.6010857 -0.28244936 0
9.5817833 7.7407398 -0.27285016 0
9.8376656 7.8910561 -0.28218147 0
1.6546187 -6.978652 -0.34597823 0
2.4999924 -5.2707057 -0.33140659 0
2.8603482 -4.3910651 -0.35791385 0
3.0720081 -4.2197976 -0.31377661 0
3.1976337 -4.1692939 -0.29277477 0
3.3289955 -3.8347061 -0.35742575 0
3.4065516 -3.5616126 -0.31347653 0
3.5966809 -3.2105932 -0.3405515 0
3.5931389 -2.919168 -0.30074114 0
3.848129 -2.7155986 -0.32327819 0
4.0239153 -2.4301734 -0.34445396 0
4.10639 -2.0935662 -0.32446459 0
4.2841725 -1.8975004 -0.3119745 0
4.4271884 -1.6750438 -0.31143731 0
4.4739871 -1.4768924 -0.28009748 0
5.8365073 1.135699 -0.29275882 0
5.9687319 1.2699277 -0.32208323 0
6.0863028 1.5030558 -0.31595746 0
6.2444386 1.8000188 -0.29578674 0
6.4266291 2.0313425 -0.32162365 0
6.5079646 2.2743974 -0.31163648 0
6.6870742 2.5900893 -0.30513126 0
6.7363405 2.8603225 -0.31639907 0
6.9677401 3.0706391 -0.31376222 0
7.1815319 3.6114218 -0.30218276 0
7.3967285 4.2791204 -0.27718148 0
7.6348772 4.3857465 -0.29240105 0
8.1459761 5.5869207 -0.28342441 0
8.3904152 5.7075315 -0.29549584 0
9.3161163 7.9215574 -0.29346737 0
1.4284239 -6.8361144 -0.36006057 0
1.3319218 -6.6205316 -0.35831615 0
2.279788 -5.2375097 -0.35378423 0
2.3096392 -4.9315557 -0.32796946 0
2.8316045 -4.1445847 -0.33833882 0
2.8786874 -3.9470751 -0.31355271 0
3.0907445 -3.5581217 -0.36092433 0
3.0995183 -3.3628871 -0.33793086 0
3.4062004 -2.8786781 -0.32897475 0
3.6316009 -2.5428226 -0.32778367 0
3.7476976 -2.3484893 -0.32104075 0
3.8440287 -2.0558896 -0.33315325 0
4.0303998 -1.7505796 -0.33528376 0
4.1478868 -1.4840529 -0.32752112 0
4.2929544 -1.2389275 -0.28772679 0
5.3861628 1.0566455 -0.27585363 0
5.5553007 1.2011648 -0.31400374 0
5.7137566 1.3979962 -0.31464511 0
5.8520751 1.7101104 -0.32331568 0
5.9756417 1.9365081 -0.32527709 0
6.1225376 2.2062402 -0.32532308 0
6.2805891 2.4925177 -0.30477098 0
6.5083585 2.6698828 -0.31951258 0
6.5477905 3.0641258 -0.30793452 0
6.6188254 3.1551232 -0.32611245 0
6.8366394 3.6470068 -0.30679661 0
6.9353547 3.7089398 -0.31735769 0
7.197422 4.5114536 -0.31139603 0
7.3513241 4.5404692 -0.31464201 0
7.9391088 5.6794834 -0.29630473 0
7.9898396 5.8114123 -0.31098741 0
9.0350399 7.8687816 -0.29405493 0
1.1942039 -6.5875926 -0.37044388 0
1.1233363 -6.4599795 -0.37127069 0
2.0434511 -4.8757801 -0.35598922 0
2.5552735 -4.0333486 -0.36645329 0
2.615413 -3.7147884 -0.33021751 0
2.8758395 -3.2069895 -0.35851839 0
3.0360317 -3.1001251 -0.32038337 0
3.2417972 -2.7170906 -0.33985656 0
3.345418 -2.4076023 -0.33443689 0
3.4983189 -2.1917686 -0.3342928 0
3.613883 -1.9398072 -0.33430952 0
3.7735908 -1.658651 -0.31782606 0
3.9035623 -1.3640195 -0.32860899 0
4.0337172 -1.0940043 -0.33062524 0
4.0674653 -0.84105057 -0.32636738 0
5.1779208 1.0625126 -0.297737 0
5.2912817 1.2508948 -0.31917801 0
5.4173942 1.5212812 -0.32031217 0
5.5639257 1.7419457 -0.32169914 0
5.6890326 2.0898616 -0.32789207 0
5.8795605 2.3023481 -0.31543368 0
6.0242453 2.631062 -0.31150922 0
6.1418118 2.9107425 -0.31041408 0
6.3294477 3.149991 -0.32608545 0
6.6222553 3.7054982 -0.31802118 0
7.0543814 4.5065207 -0.31202689 0
7.6654263 5.7591782 -0.30925918 0
1.1151471 -6.2531242 -0.36198828 0
1.0913105 -5.9754901 -0.35126412 0
1.9006188 -4.6582694 -0.35903373 0
1.8889627 -4.45223 -0.34720153 0
2.3918371 -3.6654232 -0.35944444 0
2.4012599 -3.3829746 -0.33592147 0
2.7845607 -3.0263586 -0.35649166 0
2.7471042 -2.8080564 -0.34335563 0
2.9338098 -2.5339279 -0.34149134 0
3.0516129 -2.3313532 -0.33657938 0
3.2372391 -2.0536475 -0.35275817 0
3.3304119 -1.8221167 -0.3523092 0
3.4948657 -1.5305161 -0.35398176 0
3.612884 -1.2191836 -0.34733012 0
3.7855787 -0.96467423 -0.33504641 0
3.8820515 -0.68878907 -0.35059476 0
3.9899747 -0.44612548 -0.33574122 0
4.118206 -0.14852157 -0.31534851 0
4.2275887 0.18615055 -0.31706855 0
4.3716712 0.41933358 -0.3038978 0
4.5156937 0.66449225 -0.32372263 0
4.7124138 0.92654359 -0.33560678 0
4.8879595 1.153156 -0.34235534 0
5.0150452 1.4008816 -0.34779218 0
5.1837072 1.6930742 -0.34270832 0
5.2992983 1.9458004 -0.33649448 0
5.4325962 2.2448685 -0.34272844 0
5.6068621 2.4588773 -0.34409523 0
5.7308302 2.694406 -0.33419991 0
5.8397484 3.0886056 -0.32384071 0
6.038919 3.1889613 -0.33879647 0
6.1339197 3.6753464 -0.32124653 0
6.3349676 3.7769375 -0.33464572 0
6.4977684 4.4495649 -0.3130877 0
6.7417331 4.5473814 -0.32255006 0
7.24154 5.7180252 -0.3120656 0
7.4972582 5.794065 -0.31615889 0
-0.48309374 -8.3397827 -0.3556737 80
0.92948914 -5.8749676 -0.36383966 0
0.91634107 -5.6992455 -0.35739022 0
1.7128108 -4.5004096 -0.37301025 0
1.6897061 -4.2452135 -0.36067784 0
2.12255 -3.4796596 -0.38685572 0
2.1574881 -3.2893748 -0.36774254 0
2.6105771 -2.6119058 -0.35213262 0
2.6407456 -2.4311302 -0.33256757 0
2.8759918 -2.1699815 -0.35962245 0
2.9835973 -1.8888497 -0.34117678 0
3.0908761 -1.6239104 -0.3504959 0
3.2307537 -1.3761979 -0.3614358 0
3.3405023 -1.0597659 -0.3629016 0
3.5383077 -0.81089509 -0.33477977 0
3.6372399 -0.57709765 -0.3694075 0
3.8048317 -0.28406009 -0.35730085 0
3.9519155 -0.03475517 -0.35546494 0
4.0520191 0.20714417 -0.34435788 0
4.1727567 0.49724305 -0.34674403 0
4.3581862 0.77849984 -0.34841907 0
4.5042133 1.0318855 -0.35860389 0
4.6400504 1.2961686 -0.34513161 0
4.7902322 1.549745 -0.34017751 0
4.9223409 1.8718667 -0.35329744 0
5.0905485 2.0687742 -0.33343297 22.5
5.1869392 2.3675451 -0.33989081 0
5.3049202 2.6150711 -0.33753574 0
5.4145145 3.0447164 -0.33349067 0
5.5742598 3.1151309 -0.34016556 0
5.6630425 3.319469 -0.37813047 0
5.864933 3.6854932 -0.33155358 0
5.9676046 3.8207922 -0.35190859 0
6.1991968 4.493082 -0.32761797 0
7.1547737 5.8250804 -0.32678992 0
-0.46299195 -7.7632937 -0.3388969 80
0.77263427 -5.6742225 -0.37201679 0
0.69060588 -5.4891062 -0.3733103 0
0.69738603 -5.2215395 -0.36166281 0
1.4646611 -4.1933365 -0.38795233 0
1.5537319 -3.8576922 -0.357517 0
2.0996842 -3.0880709 -0.36367726 0
2.05533 -2.8357706 -0.35559303 0
2.3420625 -2.4775171 -0.39418286 0
2.4160929 -2.1996644 -0.36203849 0
2.5744398 -2.0060089 -0.31871074 0
2.7659678 -1.7519054 -0.35440543 0
2.8265905 -1.4684529 -0.34846425 0
2.9692545 -1.1793313 -0.35821325 0
3.1001863 -0.99334991 -0.37818712 0
3.2828729 -0.69937181 -0.36290699 0
3.3775392 -0.39889276 -0.36820242 0
3.543359 -0.16087407 -0.36748946 0
3.6792459 0.083630234 -0.35803753 0
3.7934477 0.34853458 -0.36882207 0
3.918278 0.64307261 -0.37066314 0
4.0877833 0.88665801 -0.35417336 0
4.2642241 1.1619358 -0.36420289 0
4.3748255 1.4615793 -0.35528743 0
4.5297465 1.6834419 -0.34703285 0
4.6580482 1.9385602 -0.3500278 45
4.8278513 2.1829691 -0.35465989 90
4.9366183 2.5615501 -0.35353765 0
5.1173816 2.612046 -0.34982583 0
5.1660295 2.9696524 -0.33357537 0
5.4555793 3.6266069 -0.33870503 0
5.632637 3.7410126 -0.35060298 0
5.8557177 4.5177479 -0.34334901 0
-0.68373013 -7.7666349 -0.35869431 80
-0.60562325 -7.4211655 -0.34330669 80
0.52654886 -5.1350813 -0.37789303 0
1.3335226 -3.7346883 -0.38225672 0
1.3639836 -3.4785428 -0.36586237 0
1.9064175 -2.6647003 -0.37212378 0
1.8357102 -2.4023476 -0.37253797 0
2.1918607 -2.0271962 -0.39864716 0
2.2500544 -1.8583498 -0.37889248 0
2.3951688 -1.6292833 -0.33918065 0
2.619452 -1.3114991 -0.36942315 0
2.659951 -1.0673814 -0.37433463 0
2.8821363 -0.83290243 -0.37436104 0
2.9989262 -0.55721426 -0.36478746 0
3.0605552 -0.30904216 -0.36829898 0
3.2804551 -0.05118686 -0.3700105 0
3.3651705 0.28180259 -0.38104725 0
3.5522661 0.48620141 -0.37330025 0
3.676007 0.76143384 -0.36507702 0
3.8067939 1.0428259 -0.36728123 0
3.9636755 1.3050897 -0.35960573 0
4.1064811 1.5350053 -0.36821762 0
4.2293615 1.8430556 -0.35656542 0
4.8354149 2.9746616 -0.35995352 0
5.1705632 3.6462491 -0.35816696 0
5.6839862 4.5331936 -0.35279897 0
6.3738565 5.8919349 -0.35703349 0
-1.1206303 -7.61765 -0.39492142 80
0.35204792 -4.8857746 -0.38924313 0
0.3410418 -4.5860796 -0.38043314 0
1.0595601 -3.5240798 -0.4123053 0
1.1610091 -3.2297168 -0.38551185 0
1.7056296 -2.6054015 -0.40467989 0
1.6978974 -2.2619841 -0.3921175 0
1.8429891 -2.0079365 -0.35724747 0
2.1637101 -1.5283577 -0.3860752 0
2.2785587 -1.2590566 -0.35523397 0
2.537477 -0.85942149 -0.38263637 0
2.6180289 -0.68918228 -0.3631056 0
2.6299887 -0.45447087 -0.36430547 0
2.9559207 -0.086719871 -0.37283519 0
3.0414491 0.11665177 -0.36297587 0
3.1406016 0.36808023 -0.35842186 0
3.2469885 0.6365701 -0.38459378 0
3.4034407 0.86178875 -0.37966144 0
3.5435643 1.2551913 -0.37368861 0
3.7092085 1.416105 -0.38493726 0
3.8886771 1.6651516 -0.37956131 0
3.9058182 2.0988884 -0.38415226 0
4.1486211 2.2035062 -0.36802533 0
4.9439216 3.7195053 -0.38601789 0
-1.2289033 -7.2373538 -0.39670029 40
0.21099997 -4.4641585 -0.3923865 0
0.19424081 -4.2584305 -0.38838813 0
1.0967679 -2.9488804 -0.3854709 0
1.690277 -1.7460498 -0.37887311 0
1.6555667 -1.5687896 -0.38251701 0
2.1297927 -1.1073631 -0.38643324 0
2.1965885 -0.78886187 -0.37219036 0
2.2666645 -0.54822588 -0.39009079 0
2.545486 -0.2697854 -0.39210027 0
2.578614 -0.0057952404 -0.39648649 0
2.7393668 0.19360805 -0.39636922 0
2.8040628 0.56613594 -0.38531002 0
2.9453785 0.80214667 -0.37700397 0
3.0847604 1.0070592 -0.38901091 0
3.2714148 1.3076669 -0.39525858 0
3.407506 1.6321473 -0.38789937 0
3.6627793 1.8167527 -0.37206113 0
3.732954 1.9778006 -0.38951465 0
4.490756 3.4487603 -0.37414795 0
-1.3962469 -7.0479574 -0.40861684 0
-1.4129252 -6.7229824 -0.40405506 0
0.025389671 -4.0936203 -0.40507555 0
0.16675711 -3.730325 -0.37865794 0
0.82187319 -2.8899107 -0.42612296 0
1.6104387 -1.2304156 -0.38876444 0
1.6198093 -0.99578655 -0.38737327 0
2.0577972 -0.46500599 -0.40932512 0
2.195035 -0.10533488 -0.39127466 0
2.3474953 0.43638372 -0.38995168 90
2.7648923 0.88523799 -0.42906985 0
2.9843936 1.1950397 -0.41041034 0
3.0353422 1.3204234 -0.41652682 0
3.3002141 2.143013 -0.4010793 0
3.3879819 2.2247338 -0.40003666 0
-1.5474875 -6.5116363 -0.41331002 0
-1.6121829 -6.3520336 -0.41698658 0
0.046396494 -3.6726351 -0.39287704 0
-0.00088739395 -3.5053921 -0.39581597 0
0.83542204 -1.8118432 -0.4048945 0
1.5611408 -0.86132026 -0.40022975 0
2.4177463 0.75326931 -0.40136558 0
2.6370523 1.3708096 -0.41408411 0
3.1205781 2.157196 -0.43362743 0
-1.652509 -6.1751957 -0.41818857 0
-1.6004238 -5.9302588 -0.40940946 0
-0.041534424 -3.3376226 -0.39826119 0
0.81769347 -1.6373239 -0.40710828 0
0.75019228 -1.5201989 -0.41827935 0
1.6156328 -0.089031816 -0.41010624 0
-1.7378094 -5.8351841 -0.42183053 0
-1.701468 -5.6126957 -0.41531217 0
-1.7719781 -5.2833319 -0.41876876 0
9.2012987 -3.87117 0.23364519 90
9.0497503 -3.7433896 0.13080585 90
9.154994 -3.5361607 0.1788055 90
8.9011269 -3.5268519 0.18603382 90
5.5390501 -6.5580215 0.047222704 0
5.11514 -6.4564452 0.032176394 0
5.3850565 -6.3161802 0.053355154 0
4.9990597 -6.5167251 0.10640845 0
5.2399955 -6.1244035 0.055845089 0
9.436861 2.3832049 -0.098931946 0
9.1619883 2.3577676 0.082315907 0
9.2558708 2.4627085 0.061031938 0
9.0080233 2.4051147 -0.005169685 0
9.134531 2.6783867 0.013174291 0
6.4164829 -1.5827434 -0.0027475934 80
5.8815675 -1.7945362 0.044550467 80
6.1384678 -1.4714963 0.0405096 80
6.2069459 -1.3362122 0.028009554 80
5.8174171 -1.6731874 0.0018145691 80
5.9072256 -1.423588 0.047199033 80
6.0269432 -1.2690349 0.070304543 80
4.7722778 -1.5891511 -0.21822432 0
6.1967335 1.0262107 -0.22182143 0
5.7038393 1.0405149 -0.2254905 0
9.3293009 7.5773768 -0.26249731 0
4.1719732 -1.569104 -0.24004108 0
5.5042095 1.1193943 -0.24578901 0
5.6618958 1.3367636 -0.24613219 0
6.23528 2.3796318 -0.25147492 0
4.0984235 -0.84302038 -0.26912677 0
4.2262144 -0.65370321 -0.24763398 0
5.0470352 0.87433743 -0.25065327 0
5.1282415 1.0576934 -0.26459223 0
5.3260803 1.255282 -0.23831193 0
5.5266981 1.4454198 -0.2650817 0
5.5132117 1.8524431 -0.27544379 0
5.5924706 2.1277187 -0.27876025 0
6.4185166 3.4686394 -0.27906972 0
6.8508134 4.2741723 -0.2806451 0
8.7034359 7.8781109 -0.30180317 0
3.9224699 -0.41706896 -0.28262368 0
4.1722159 -0.14582118 -0.26939541 0
4.2752934 0.1290684 -0.27789804 0
4.4241986 0.37337974 -0.25958258 0
4.5507026 0.56422532 -0.26609963 0
4.7264061 0.94376826 -0.28566557 0
4.8945436 1.1100492 -0.27625015 0
5.0600152 1.4673033 -0.28187275 0
5.0566411 1.7420537 -0.28107321 0
5.3357801 2.0297678 -0.26783338 0
5.4432335 2.4537132 -0.29070836 0
7.3380947 5.6541853 -0.30249035 0
8.3299522 7.9772534 -0.31957796 0
8.4971285 7.988925 -0.31661189 0
3.5732603 -0.43744251 -0.30078542 0
3.9495134 -0.080698937 -0.29412973 0
4.0563054 0.22362864 -0.29360744 0
4.2041507 0.62215364 -0.28755179 0
4.2169046 0.83424962 -0.30830526 0
4.4802723 1.0265794 -0.28528723 0
4.555284 1.2967128 -0.27299124 0
4.7318516 1.6193651 -0.23577942 54
4.8285642 1.8686389 -0.17827836 81
5.035006 2.0743928 -0.28081796 45
5.2939081 2.4421167 -0.29725552 0
5.3240843 2.6350851 -0.29489547 0
5.4790668 2.9294679 -0.30659762 0
6.0993919 4.3771739 -0.31343696 0
6.3130054 4.3831401 -0.30789873 0
6.8388143 5.6842017 -0.31762773 0
7.0099525 5.7008739 -0.31525335 0
8.002161 7.6945848 -0.30185789 0
2.8949103 -1.4635328 -0.30838576 0
3.0682778 -0.73410958 -0.32170159 0
3.4578583 -0.14820963 -0.31058416 0
3.6933413 0.075931013 -0.30804577 0
3.8814251 0.37046525 -0.31228408 0
4.0101862 0.66716611 -0.30297455 0
4.0967231 0.99058712 -0.32024729 0
4.2209945 1.0758809 -0.29629058 0
4.3074856 1.4311078 -0.31479424 0
4.472527 1.8151755 -0.23091137 64.285713
4.6460366 1.9308865 -0.16097425 90
4.8279185 2.1683748 -0.2174744 90
5.0235367 2.8291841 -0.31495342 0
5.4566789 3.5714672 -0.32871604 0
5.7578073 4.2414389 -0.30572498 0
5.9696012 4.3375592 -0.31199229 0
6.5721445 5.7264767 -0.33046538 0
7.7410765 7.856153 -0.32409072 0
-0.97867179 -7.8256669 -0.11702847 80
-0.77413583 -7.8519893 -0.1023195 80
2.1134415 -1.836388 -0.19734861 0
2.3926606 -1.410315 -0.33320791 0
2.7656844 -0.6737752 -0.32577825 0
3.1462393 -0.29540318 -0.30849403 0
3.2568486 -0.030515552 -0.32481176 0
3.3817253 0.24606636 -0.31238291 0
3.6412439 0.48351607 -0.30043858 0
3.6592786 0.87580246 -0.31492713 0
3.8358796 1.0175587 -0.30783349 0
3.9305685 1.3171737 -0.32159892 0
4.0838017 1.5599997 -0.31971347 0
4.1624565 1.8891258 -0.31928244 0
4.3891921 2.0107703 -0.22670047 90
4.8130693 2.8508034 -0.33688894 0
4.8685989 3.3279657 -0.32237205 0
5.0234699 3.504878 -0.34272659 0
5.2826004 3.5743876 -0.33872119 0
5.2801762 4.0914392 -0.30600178 0
5.5547256 4.4484587 -0.34590501 0
6.1783409 5.6081958 -0.32924035 0
6.6993132 6.5611534 -0.23539045 0
7.2496929 7.6878176 -0.32326829 0
7.5187435 7.8874969 -0.33358169 0
-1.1524413 -7.7595401 -0.12949178 80
1.4629444 -2.4534483 -0.18738857 0
1.6873645 -2.2145331 -0.15465018 0
1.8390155 -2.0051622 -0.19671296 0
1.9779931 -1.8614662 -0.32753375 0
2.4056575 -1.1074859 -0.32526058 0
2.3101749 -0.98018128 -0.34583575 0
2.742816 -0.45042121 -0.33629167 0
2.756135 -0.12897307 -0.3451345 0
2.9825089 0.27188206 -0.31475306 0
3.1359339 0.40010253 -0.33706921 0
3.3720422 0.85178483 -0.35013324 0
3.6294103 1.1477789 -0.33526251 0
3.7604692 1.7028894 -0.3328279 0
3.9590664 1.9286852 -0.34179956 0
4.0579615 2.3646855 -0.32541016 0
4.6993909 3.3240004 -0.33488157 0
4.7732382 3.4629917 -0.3533394 0
5.0326343 4.1786699 -0.33336741 0
5.3172297 4.388227 -0.34880605 0
5.8045063 5.4996901 -0.33074918 0
5.9218912 5.7203751 -0.35299742 0
6.3840237 6.5203843 -0.24303204 0
1.4103371 -2.486424 -0.32325593 0
1.6715853 -1.7996376 -0.222873 0
1.6049051 -1.6556422 -0.27753413 0
1.8062637 -1.3805637 -0.35142785 0
2.2891104 -0.43075752 -0.35791263 0
2.3498926 -0.28819388 -0.34884727 0
2.471559 0.064383268 -0.33790979 90
2.7145524 0.27898109 -0.2783969 54
2.8530664 0.48663208 -0.34469792 22.5
2.9957762 0.78001547 -0.36297926 0
3.1037292 1.0322295 -0.36153093 0
3.3703811 1.353215 -0.34973183 0
3.5384135 1.5793873 -0.35302538 0
3.6398668 2.1423788 -0.34639323 0
3.8397703 2.4036558 -0.36263293 0
4.0583553 2.4829829 -0.34730321 0
4.5647168 3.4423792 -0.36666104 0
4.6844163 4.0678382 -0.33970904 0
4.8690619 4.1808968 -0.34406054 0
5.0869694 4.4506297 -0.37090123 0
5.3431845 5.4136739 -0.34141454 0
5.5452414 5.591979 -0.3535898 0
6.2112317 6.6259313 -0.2598002 0
6.1101727 6.9243002 -0.29234502 0
1.3979528 -1.7954525 -0.13024184 0
1.8144505 -1.1013041 -0.34889847 0
1.7940445 -0.633816 -0.35814872 0
2.1186075 -0.0039489269 -0.26722041 90
2.3241556 0.14332914 -0.22751424 90
2.4173214 0.36576259 -0.24315856 90
2.5784459 0.69625628 -0.36187375 22.5
2.6921246 0.97849017 -0.36590573 0
2.8359842 1.2227452 -0.35692999 0
2.9957137 1.4836935 -0.35816407 0
3.1773021 1.7333496 -0.35929278 0
3.3241198 1.9646431 -0.36895511 0
3.657429 2.3614287 -0.38142294 0
3.6974082 2.814044 -0.35196817 0
3.8056803 3.0340328 -0.37417567 0
4.3234854 3.8855336 -0.34018338 0
4.4678049 4.1207237 -0.36338687 0
4.9439254 5.3261099 -0.35194248 0
5.1365347 5.455709 -0.35725147 0
0.91448581 -1.6994358 -0.39130479 0
1.6970378 -0.48625088 -0.3808074 0
1.7189482 -0.23166227 -0.38430238 0
2.0401452 -0.010207772 -0.23168734 90
2.1891673 0.59204912 -0.21427086 90
2.1366072 0.75441617 -0.35933429 90
2.5662532 0.97589958 -0.39174467 0
2.6971021 1.2664539 -0.38960436 0
2.9717705 1.7181324 -0.39466509 0
2.9413748 2.1873317 -0.3652941 0
3.1724849 2.3819356 -0.35739803 0
3.2976701 2.6416392 -0.37758955 0
3.4602468 2.8199897 -0.38274056 0
3.6120143 3.4847314 -0.34829718 0
4.5633192 5.1650324 -0.35509595 0
4.7476306 5.2793636 -0.35766906 0
5.7392197 7.530633 -0.36616427 0
5.9521055 7.6338229 -0.36673719 0
0.93096149 -1.1817162 -0.3899031 0
1.0651636 -0.87677562 -0.37097108 0
2.0217817 0.65725338 -0.27038476 90
2.0300078 0.96585119 -0.39653939 0
2.127954 1.2130344 -0.4004631 0
2.2956312 1.4979794 -0.39095882 0
2.496604 1.7620335 -0.38481379 0
2.6914384 1.9879555 -0.3792474 0
2.8017764 2.2424419 -0.39432624 0
2.928658 2.4534984 -0.40329394 0
3.2439988 3.4309475 -0.38022086 0
3.4460189 3.5501683 -0.37442541 0
4.1282749 5.0735083 -0.37314245 0
4.3092327 5.1675053 -0.37202618 0
5.3957095 7.3682461 -0.36649671 0
5.6005363 7.504096 -0.36989704 0
-1.5976386 -5.3501577 -0.40166697 0
0.8213048 -0.77697599 -0.41386876 0
0.93441999 -0.52192664 -0.40070522 0
1.1202178 -0.12665772 -0.38156796 0
2.4947834 2.5871124 -0.36768857 0
2.6596806 2.6325912 -0.35094106 0
2.7084072 2.9938092 -0.38783941 0
2.8994708 3.2374768 -0.39468351 0
3.0764899 3.3280339 -0.38546798 0
4.0043688 4.969224 -0.36958963 0
4.8194675 7.0037613 -0.36062932 0
4.9987917 7.2124023 -0.37120846 0
5.1928082 7.3609028 -0.375615 0
-1.8694763 -5.0709786 -0.4269897 0
-1.6077039 -4.5631661 -0.39605021 80
-1.4712842 -4.2390499 -0.37994441 80
-1.3032672 -3.981313 -0.14965856 80
-1.1487901 -3.8313463 -0.24165079 80
-0.99266648 -3.6836209 -0.32711983 80
-0.20856118 -2.1755579 -0.41167098 0
-0.2417357 -1.965688 -0.41671273 0
-0.11010337 -1.6650828 -0.40017685 0
0.89057744 -0.27795124 -0.41506529 0
1.3171629 1.0298996 -0.40994835 0
1.4769262 1.3036833 -0.40414155 0
1.6703051 1.4694231 -0.38683739 0
1.7254312 1.7375274 -0.39372543 0
1.9358071 2.0303998 -0.38883311 0
2.0184884 2.3212976 -0.40562102 0
2.2780104 2.5275915 -0.39077744 0
2.5109906 2.7877829 -0.3886753 0
2.6060603 3.032546 -0.40533894 0
3.1310225 4.3255534 -0.36599541 0
4.4390039 6.9120989 -0.37273398 0
4.6098604 7.1093898 -0.38198614 0
-0.2756232 -1.8104849 -0.42217413 0
-0.28090978 -1.4894795 -0.42577568 0
-0.22713757 -1.1668342 -0.4225949 0
0.030041456 -0.93531764 -0.39051145 0
1.3397732 1.1896034 -0.41749999 0
1.7039084 1.9311934 -0.41426525 0
1.6928301 2.1273863 -0.43419257 0
1.9878417 2.4118025 -0.41922048 0
2.6245675 3.9974971 -0.37796867 0
2.7641799 4.3072929 -0.39799017 0
2.9200549 4.4209385 -0.39587867 0
4.0210099 6.7039518 -0.37755647 0
4.2493124 6.8741693 -0.38004506 0
-0.30399597 -1.1785476 -0.43330663 0
-0.30129218 -0.86444402 -0.43870771 0
-0.20783305 -0.60268605 -0.43171319 0
0.044541359 -0.35102463 -0.40286368 0
-0.0011298656 -0.15524447 -0.41545546 0
1.9083188 3.4110937 -0.39418355 0
2.0108123 3.6448812 -0.4057264 0
2.2831264 3.9097514 -0.40359789 0
2.4356952 4.1066055 -0.40848562 0
2.4877326 4.3807478 -0.43262908 0
3.4978116 6.4602575 -0.38782749 0
3.7279119 6.5703897 -0.38320211 0
3.8428345 6.6310344 -0.38164321 0
-0.15046906 -0.24941349 -0.43351883 0
0.018322706 0.038706183 -0.41949472 0
0.44350177 1.2248969 -0.41603595 0
0.50221807 1.40286 -0.41868713 0
0.72193247 1.6693072 -0.40622965 0
0.98197734 2.2032046 -0.40277648 0
1.1525071 2.533469 -0.4065932 0
1.3220973 2.697278 -0.39895955 0
1.4068805 2.9846277 -0.41330758 0
1.650367 3.271585 -0.41048196 0
1.8417841 3.4816842 -0.40854919 0
2.0417728 3.8288932 -0.42077091 0
3.558774 6.7055154 -0.40663093 0
-2.0340738 -2.8064423 -0.44335592 0
0.3669754 1.4521157 -0.43990165 0
0.54888648 1.7433431 -0.43400967 0
0.67113531 2.0021095 -0.4356091 0
0.91255033 2.5187988 -0.43573901 0
1.3846424 3.253655 -0.43988815 0
2.4677434 5.7330766 -0.39529893 0
-2.1418781 -2.546803 -0.45771244 0
-2.1050882 -2.2489724 -0.4568713 0
-1.9552624 -2.0043993 -0.44329733 0
-1.9067125 -1.7896414 -0.44103172 0
2.0141535 5.4375768 -0.40550572 0
2.2338543 5.6577063 -0.40694442 0
-1.9985387 -1.6019509 -0.45457974 0
-1.972096 -1.3952851 -0.45540074 0
-1.8341184 -1.1138852 -0.44555122 0
-1.6551933 -0.96870303 -0.42847785 0
1.1629264 4.6921825 -0.41729283 0
1.3996595 5.0619116 -0.42595986 0
1.5961328 5.3062987 -0.4292343 0
1.8205239 5.4072266 -0.4188281 0
-2.0014286 -1.2645087 -0.46134943 0
-1.8697873 -0.72413278 -0.45887357 0
-1.7854435 -0.39858699 -0.45800555 0
-1.670476 -0.20748949 -0.4505071 0
0.64119619 4.2127399 -0.42919701 0
0.68681258 4.3331823 -0.43382424 0
0.90896475 4.6192174 -0.43486658 0
1.1922184 4.8410339 -0.42647457 0
1.1440818 5.091207 -0.45083049 0
-1.8749706 -0.007065773 -0.48001742 0
-1.6073563 0.23274422 -0.45758197 0
-0.99957001 1.6829212 -0.44982255 0
-0.93531913 1.7887497 -0.44799766 0
-0.76397455 2.0444195 -0.44245848 0
-0.671381 2.3289213 -0.44787377 0
-0.53327185 2.6600974 -0.45209369 0
-0.42263776 2.9280939 -0.44983554 0
-0.33309999 3.1542201 -0.45434642 0
-0.021417052 3.4541442 -0.44153783 0
0.1621781 3.687156 -0.43870053 0
0.29690772 3.9611998 -0.44440895 0
0.44110769 4.1536045 -0.44414997 0
0.70123231 4.487433 -0.44408825 0
-1.2378879 1.6276928 -0.47347149 0
-1.0507517 1.9573961 -0.46920589 0
-0.92590827 2.3054929 -0.47403687 0
-0.7264244 2.4853959 -0.46257892 0
-0.64923537 2.5829992 -0.45992216 0
-0.28941712 3.2693408 -0.4570809 0
-0.30882943 3.4264243 -0.46917987 0
-1.0587435 2.9242182 -0.32072905 0
-0.79170597 3.4295988 -0.31648815 0
-1.0146477 3.2559125 -0.32624686 0
0.92668343 8.019433 -0.45335895 0
1.1050701 8.2253265 -0.4548271 0
-4.2224016 -1.3403673 -0.44317752 0
-3.9869449 -1.1487732 -0.42753944 0
-0.3072238 6.3831224 -0.43886665 0
-0.14805532 6.6859827 -0.44521391 0
-0.007902503 6.7653599 -0.43994942 0
0.33753824 7.3899899 -0.45367628 0
0.48228478 7.6199083 -0.45799929 0
0.63472557 7.852293 -0.46219054 0
0.69753814 8.0806484 -0.47233358 0
-0.41452849 6.2675104 -0.43996781 0
-0.28014719 6.5955296 -0.44935656 0
-0.054301143 7.2300038 -0.47114411 0
0.15201259 7.3689466 -0.46518138 0
-1.2065239 5.7168789 -0.46806595 0
-1.1366425 5.9817419 -0.47742489 0
-0.99114275 6.2957673 -0.48416403 0
-0.70537305 6.3498778 -0.46606934 0
-2.7734597 3.6022377 -0.49226433 0
-2.2353115 4.6766534 -0.49401227 0
-2.0860806 4.9702258 -0.49692401 0
-1.8448949 5.0966973 -0.48439941 0
-1.6780753 5.3777714 -0.48608938 0
-1.610109 5.6384563 -0.49473372 0
-1.4069368 5.67941 -0.48133212 0
-3.6849418 2.3576989 -0.51514071 0
-3.5826254 2.5909567 -0.51590449 0
-3.500397 2.9202371 -0.52262926 0
-3.2509789 3.0944924 -0.50921333 0
-3.1690049 3.3295312 -0.51265633 0
-3.1198635 3.5826015 -0.51984721 0
-2.1881313 4.8415146 -0.49850827 0
9.035553 -3.7173548 0.50205052 90
9.1663895 -3.52385 0.53654766 90
9.0013962 -3.4591668 0.43615109 90
5.4873428 -6.5312033 0.40716985 0
5.1780357 -6.4318695 0.40593725 0
5.3224754 -6.3088794 0.29194814 0
9.0953703 2.3530123 0.2871083 0
9.2568293 2.4818029 0.3586548 0
9.0032215 2.4792666 0.27911824 0
9.1335306 2.6457388 0.33456865 0
6.3650312 -1.6180193 0.30267128 80
5.9576502 -1.7044196 0.34341303 80
6.1400838 -1.4704607 0.29313979 80
6.1572781 -1.3433936 0.25196499 80
5.8442373 -1.6168008 0.2827642 80
5.926733 -1.4239007 0.27848297 80
6.010994 -1.2580816 0.25354907 80
4.6853356 1.7027812 0.068221249 90
4.7815318 1.8619381 0.1137016 90
-0.7447319 -8.0637722 0.16869798 80
4.5472875 1.7674388 0.18023194 90
4.6229143 1.9255793 0.12916037 90
4.716506 2.2399609 0.1566523 90
-0.80400944 -7.865694 0.16215178 80
4.4359355 2.1023996 0.1130096 90
6.5581808 6.5108199 -0.045682356 0
6.7232132 6.7671022 -0.056503706 0
6.7287598 6.8625627 0.13668419 0
1.5200124 -2.3245544 0.067111693 0
1.7188286 -2.145679 0.10078833 0
1.7669626 -1.9980555 0.083786681 0
1.8432974 -1.7891524 -0.021221273 0
6.3553433 6.5577569 0.0065472145 0
6.5235596 6.7769957 0.13118121 0
1.5514737 -2.0566471 0.066425659 0
1.5907619 -1.8678602 0.067376964 0
2.4909935 0.068311036 0.057060197 90
6.2194691 6.868556 0.014659373 0
1.3476449 -1.8022747 0.10519829 0
2.147902 4.2796135e-05 0.071321785 90
2.2700717 0.16184056 0.060106166 90
2.3231702 0.37932366 0.056416191 90
1.9774365 0.019425869 0.05486289 90
2.149101 0.3077715 0.15388574 90
2.2045071 0.49122614 0.073059596 90
-1.2041216 -3.7695549 0.062122837 80
