# .PCD v0.7 - Point Cloud Data file format
VERSION 0.7
FIELDS x y z intensity
SIZE 4 4 4 4
TYPE F F F F
COUNT 1 1 1 1
WIDTH 1366
HEIGHT 1
VIEWPOINT 0 0 0 1 0 0 0
POINTS 1366
DATA ascii
2.8852673 6.3423395 -0.24979746 0
2.7282448 6.4400949 -0.24205796 0
2.4705691 8.7037239 -0.20791948 0
4.8626709 -7.435442 -0.48997742 0
4.3943071 -5.3011932 -0.44922107 0
4.5181594 -5.1608963 -0.45277762 0
4.4825397 -4.8526669 -0.41719496 0
4.1162343 -3.5371907 -0.39666304 0
4.1598606 -3.3829105 -0.3884578 0
3.8844395 -2.36812 -0.37551236 0
4.0113034 -2.1998286 -0.38692954 0
3.7907467 -1.4851037 -0.39964235 0
3.7900159 -1.1702812 -0.37531838 0
3.8005211 -0.94488859 -0.36339751 0
3.5189242 -0.30176401 -0.36654383 0
3.5513985 -0.20577401 -0.37330797 0
3.4797523 0.28356305 -0.34651983 0
3.4504039 0.53914481 -0.34101528 0
3.3988581 0.82448924 -0.33433291 0
3.3134446 1.1667739 -0.32672533 0
3.3090706 1.4066436 -0.34222418 0
3.3318076 1.668209 -0.31215245 0
3.3068054 2.2884881 -0.30852741 0
3.1498418 2.606833 -0.30712551 0
3.0796685 3.5642552 -0.28119621 0
3.0706098 3.7449608 -0.30191818 0
2.7926328 4.8222857 -0.2435019 0
2.7341728 5.0138774 -0.25840455 0
2.5700755 6.5358191 -0.23450756 0
2.4723814 6.6219764 -0.2330018 0
2.2419596 8.765234 -0.19307771 0
4.5510774 -7.6859798 -0.47701329 0
4.667675 -7.5723047 -0.479886 0
4.1730809 -5.3219376 -0.42038715 0
4.0770879 -4.1231208 -0.45408577 0
3.9976628 -3.9490519 -0.42106962 0
4.0587978 -3.6843328 -0.40219414 0
3.8422971 -2.9075038 -0.42454821 0
3.7740698 -2.7496963 -0.39309648 0
3.7545648 -2.5312223 -0.36471546 0
3.4978337 -1.6763489 -0.34277004 0
3.5100849 -1.2256492 -0.30664489 0
3.3595409 -0.93301433 -0.35352337 0
3.4020989 -0.67695695 -0.34913516 0
3.3840218 -0.44671118 -0.33205992 0
3.4050672 -0.036940277 -0.32611212 0
3.2495439 0.17817378 -0.34290877 0
3.1140704 0.4090094 -0.33587751 0
3.1776175 1.0683299 -0.31498531 0
3.0706053 1.3155396 -0.31715113 0
3.0884609 1.7102178 -0.30677527 0
2.9648335 1.959675 -0.29968187 0
3.0518124 2.4162033 -0.26246607 0
2.9644091 2.5701489 -0.26086807 0
2.9127817 2.9052763 -0.29158399 0
2.7404144 3.134397 -0.28670076 0
2.7633674 3.7701409 -0.2510972 0
2.5995822 4.0409036 -0.25988621 0
2.5202725 5.0377455 -0.23239657 0
2.4479084 5.2248077 -0.2461808 0
2.3111887 6.5447536 -0.20778304 0
2.1714816 6.6967545 -0.20957883 0
2.0524156 6.9274893 -0.22244129 0
1.8535918 8.8349533 -0.16629583 0
4.3433886 -7.8055687 -0.4650304 0
3.8528008 -5.8229828 -0.43067876 0
3.9371226 -5.5140171 -0.40844834 0
3.6327851 -4.1746564 -0.3863371 0
3.6907134 -4.0174255 -0.37710756 0
3.5097394 -3.0842638 -0.37846455 0
3.5245826 -2.8774741 -0.35614073 0
3.5773478 -2.6078894 -0.33577847 0
3.4751346 -2.2569127 -0.40025222 0
3.3902149 -1.904284 -0.33963707 0
3.1589344 -1.5157392 -0.34945109 0
3.2007663 -1.3217074 -0.34136894 0
3.2151611 -1.0551803 -0.32112756 0
3.00418 -0.68248492 -0.32894468 0
3.0712869 -0.42917275 -0.33565411 0
3.0465744 -0.10929406 -0.31550249 0
3.006664 0.15508839 -0.29893744 0
3.012105 0.49247378 -0.30441388 0
2.9428866 0.72724605 -0.29027557 0
2.8695145 1.0095844 -0.29792964 0
2.8140209 1.4019165 -0.29865888 0
2.7378421 1.6227055 -0.2991066 0
2.6706851 1.9946625 -0.27470815 0
2.6775043 2.2441149 -0.26073688 0
2.5350974 2.5621948 -0.27132002 0
2.506762 3.1631031 -0.24397399 0
2.3920317 3.3968029 -0.25716841 0
2.3357706 4.0200896 -0.21456026 0
2.2263441 4.2398558 -0.22943752 0
2.2193565 4.9824595 -0.18631957 0
2.1346636 5.1436195 -0.19629678 0
1.9923642 5.4469585 -0.21856162 0
1.8465399 6.6798906 -0.17546898 0
1.5358067 8.8410387 -0.14115119 0
1.4071304 9.0121222 -0.14566188 0
4.0362144 -7.9007797 -0.44078907 0
3.5882359 -5.872334 -0.40194497 0
3.5916185 -5.6515551 -0.37775835 0
3.4178405 -4.3083506 -0.36832827 0
3.2315471 -3.4082401 -0.366932 0
3.2687311 -3.1503568 -0.33964247 0
3.1346495 -2.473196 -0.34842971 0
3.2200799 -2.309396 -0.3466258 0
2.9666674 -2.0115657 -0.35942373 0
3.0080445 -1.7280339 -0.33340704 0
2.9535475 -1.3502243 -0.30754286 0
2.8313637 -1.0771534 -0.30829212 0
2.9134846 -0.86433613 -0.31422904 0
2.6991441 -0.46784174 -0.30423069 0
2.6916747 -0.21699595 -0.28873807 0
2.704164 0.086754501 -0.28599942 0
2.6027353 0.41901723 -0.28370085 0
2.5822754 0.68756145 -0.28423861 0
2.5720794 1.0063552 -0.27544969 0
2.5498767 1.315038 -0.29869944 0
2.4476459 1.5608685 -0.24922761 0
2.4291527 1.859545 -0.25820902 0
2.3239484 2.1747546 -0.25920156 0
2.3120065 2.4850168 -0.25578654 0
2.2655647 2.7928259 -0.24657847 0
2.1316099 3.0365005 -0.25965214 0
2.1057208 3.3987677 -0.2046503 0
2.0404179 3.6294746 -0.23122431 0
2.0748777 4.3125076 -0.21768336 0
1.9143646 4.5657558 -0.23345122 0
1.7350819 5.3250799 -0.17284206 0
1.7206204 5.5874996 -0.20619184 0
1.7377828 6.7387614 -0.17148671 0
1.5940075 6.9072757 -0.1766409 0
1.1565939 8.941226 -0.12061031 0
3.7551856 -8.2352772 -0.44292802 0
3.305861 -6.1256256 -0.39555565 0
3.2736516 -5.7031326 -0.34317985 0
3.1637695 -4.637475 -0.37135518 0
3.2191839 -4.4571652 -0.35631686 0
2.8971233 -3.8135602 -0.36411077 0
2.9995503 -3.5329516 -0.34154078 0
2.9163272 -2.874366 -0.35764512 0
2.9479492 -2.6041918 -0.32478863 0
2.794699 -2.2134542 -0.34471205 0
2.7979198 -2.0931809 -0.327595 0
2.6489084 -1.6922021 -0.30539286 0
2.6786911 -1.4311416 -0.30197221 0
2.5865967 -1.1441873 -0.29847485 0
2.5373592 -0.82936466 -0.3017602 0
2.4990337 -0.57275772 -0.28233019 0
2.4261148 -0.21327057 -0.27333379 0
2.3695991 0.065731943 -0.27779359 0
2.3282557 0.33684528 -0.26707166 0
2.278594 0.65020269 -0.25680831 0
2.2271533 0.94199967 -0.26363185 0
2.1668553 1.2164352 -0.23948146 0
2.1748524 1.5469642 -0.239801 0
2.0814896 1.7964488 -0.23044229 0
1.9723468 2.0853314 -0.2396483 0
2.0980384 2.4369977 -0.24644601 0
1.9583635 2.6817102 -0.23845826 0
1.8810384 3.0210781 -0.2065185 0
1.7493458 3.1653697 -0.20812483 0
1.8872828 3.7305398 -0.22266558 0
1.7450101 3.8591352 -0.22243986 0
1.6787248 4.4502435 -0.18400842 0
1.6081052 4.7340403 -0.21957618 0
1.4982786 5.5529122 -0.17774554 0
1.3291862 6.8502588 -0.14664389 0
1.1879054 7.0839586 -0.16056189 0
0.93164051 9.0381336 -0.11235878 0
0.7772553 9.0785608 -0.10481147 0
3.4163353 -8.2594662 -0.41103542 0
3.015316 -6.3819833 -0.39095706 0
3.128231 -6.1896901 -0.38162911 0
2.9071345 -4.7986712 -0.35546803 0
2.9721384 -4.5347052 -0.32939696 0
2.6868601 -3.8201282 -0.32923982 0
2.82198 -3.5825515 -0.31694433 0
2.7052779 -3.2030084 -0.36572546 0
2.6276786 -2.9755208 -0.31350213 0
2.3943727 -2.5556581 -0.30498257 0
2.4889665 -2.3792348 -0.2968747 0
2.4271784 -2.0552893 -0.31080455 0
2.3612142 -1.718838 -0.28258818 0
2.3793211 -1.4783161 -0.28795338 0
2.3172584 -1.1766735 -0.28127071 0
2.3080368 -0.87402827 -0.28405437 0
2.2276144 -0.56107283 -0.27188495 0
2.1511133 -0.30908421 -0.26775098 0
2.1273837 -0.022205472 -0.26563823 0
2.0446057 0.25529674 -0.24329357 0
1.9734185 0.58567685 -0.23044923 0
1.937138 0.84437901 -0.2358169 0
1.9330163 1.1776034 -0.25117412 0
1.8319782 1.4663448 -0.23847395 0
1.7897873 1.7528362 -0.22677521 0
1.7362064 2.1313622 -0.18458468 0
1.684275 2.3819673 -0.22542989 0
1.6623697 2.7071824 -0.19888383 0
1.624897 2.8947468 -0.23073158 0
1.5557644 3.2757709 -0.19513471 0
1.5058272 3.6072133 -0.19596796 0
1.4932194 3.9258335 -0.19673471 0
1.2823637 4.099411 -0.19934735 0
1.3406682 4.4856248 -0.14732614 0
1.237052 4.71454 -0.17229357 0
1.2936141 4.8992429 -0.20846969 0
1.1935261 5.5670896 -0.14886391 0
1.0328381 5.7712207 -0.16171548 0
1.0234809 6.8625679 -0.12209607 0
0.87488532 7.0973883 -0.13658954 0
0.53935826 9.0781984 -0.088319212 0
3.2286615 -8.4325151 -0.40937126 0
2.7746696 -6.3095317 -0.35473582 0
2.7622519 -4.9534373 -0.35623032 0
2.5490229 -4.8813357 -0.31711757 0
2.4339817 -3.9752975 -0.3119573 0
2.2616844 -3.5021541 -0.33282104 0
2.4122348 -3.2623289 -0.31870231 0
2.1530075 -2.6696653 -0.27208439 0
2.1840301 -2.4291775 -0.27406701 0
2.1723824 -2.1273119 -0.27373797 0
2.101264 -1.8384033 -0.29106972 0
2.0774918 -1.5486593 -0.27073494 0
2.011663 -1.2318861 -0.2553288 0
1.8935878 -0.92185944 -0.2435782 0
1.8832747 -0.63244861 -0.23539197 0
1.8953383 -0.30632019 -0.25900805 0
1.8633184 -0.040079087 -0.22753476 0
1.833155 0.26778567 -0.22781314 0
1.75723 0.54099327 -0.19839567 0
1.723825 0.87842202 -0.21615559 0
1.5859346 1.16089 -0.20540753 0
1.4990804 1.3967202 -0.19951046 0
1.4940137 1.7352067 -0.20655228 0
1.4904377 2.0023456 -0.22187673 0
1.3874017 2.2604382 -0.19504009 0
1.3656052 2.5807347 -0.197274 0
1.2989193 2.914443 -0.1843265 0
1.1840692 3.1505589 -0.20516691 0
1.2053778 3.4771276 -0.17942527 0
1.2218764 3.7233031 -0.12171103 0
1.0736759 4.0526686 -0.16414753 0
0.88238001 4.6711531 -0.12706667 0
1.0662644 4.896523 -0.18318842 0
0.84693956 5.6006536 -0.1213045 0
0.71725148 5.72329 -0.12719887 0
0.61306655 6.978766 -0.10309402 0
0.31070912 9.2417555 -0.087136716 0
2.8799071 -8.6507559 -0.39757627 0
2.9761784 -8.4428873 -0.38619855 0
2.5454116 -6.3991847 -0.34003687 0
2.3442466 -5.0254345 -0.31061727 0
2.1472208 -4.1551118 -0.29673058 0
2.1965733 -3.9860365 -0.27645269 0
1.9789345 -3.6194201 -0.3052249 0
2.1319637 -3.3117161 -0.27550653 0
1.8921816 -2.9604256 -0.27516353 0
1.9839458 -2.7781646 -0.27391031 0
1.9324481 -2.4577918 -0.28151211 0
1.8280187 -2.1664705 -0.26241234 0
1.7785466 -1.8766435 -0.25499758 0
1.7701271 -1.5887289 -0.26153636 0
1.6945349 -1.2835379 -0.23170191 0
1.6360242 -0.97505075 -0.23757991 0
1.6513692 -0.7279672 -0.19937433 0
1.6566372 -0.49886626 -0.18198638 0
1.3770162 1.250801 -0.15809967 0
1.3093435 1.460174 -0.17768721 0
1.2166158 1.7152026 -0.19098295 0
1.1375613 1.9753356 -0.18445519 0
1.1819994 2.318522 -0.20334496 0
1.0213007 2.5507922 -0.17302981 0
1.0262102 2.7611032 -0.17450553 0
0.9608655 3.1369808 -0.16628666 0
0.92358249 3.4782374 -0.17174777 0
0.87850279 3.6589532 -0.17236286 0
0.81909138 4.0864754 -0.14066619 0
0.69730067 4.2119923 -0.15165687 0
0.81662071 4.7607236 -0.1353386 0
0.66403031 4.8651972 -0.13832507 0
0.50850624 5.6532254 -0.10044533 0
0.52330816 5.7835627 -0.11980499 0
0.31402409 7.0591211 -0.090767987 0
0.064669013 8.9911928 -0.049658373 0
2.5265927 -8.6024446 -0.36053145 0
2.6658261 -8.5164366 -0.36460274 0
2.274678 -6.5548759 -0.33026055 0
2.0916028 -5.198348 -0.30405468 0
1.9314415 -4.2948723 -0.28905663 0
1.7866752 -3.6573737 -0.28116274 0
1.8789504 -3.3056648 -0.22993687 0
1.7071137 -3.0905585 -0.26727974 0
1.5839037 -2.7541022 -0.27118528 0
1.5618507 -2.5240734 -0.23548363 0
1.5570059 -2.240494 -0.24668857 0
1.5009801 -1.916142 -0.24402563 0
1.4695326 -1.6408055 -0.21731964 0
1.4172153 -1.3598462 -0.2291775 0
1.427898 -1.0445995 -0.18874976 0
0.96273124 1.4374558 -0.057469547 0
0.93245625 1.6873579 -0.12980033 0
0.90702623 1.9486144 -0.15120523 0
0.8517586 2.1927547 -0.16151609 0
0.78367174 2.5565939 -0.15790224 0
0.76324856 2.8225327 -0.14602374 0
0.62752914 3.1474102 -0.13940169 0
0.75052327 3.5555482 -0.1338314 0
0.58507299 3.686198 -0.14363043 0
0.47835284 4.2433405 -0.13642734 0
0.32133704 4.8435507 -0.10533633 0
0.21793282 5.7293959 -0.089345478 0
0.2349568 5.9927354 -0.12762463 0
0.011120915 7.1695375 -0.083132207 0
-0.24808931 9.1013155 -0.039985374 0
2.3046055 -8.6956882 -0.35022271 0
1.9775791 -6.6431446 -0.31095403 0
1.7411382 -5.4118395 -0.29493916 0
1.7641351 -5.1782627 -0.26246831 0
1.5380309 -4.5760078 -0.28542656 0
1.6453254 -4.3765411 -0.26428992 0
1.5182047 -3.7791448 -0.2638236 0
1.302485 -3.3752503 -0.26011825 0
1.4314954 -3.2621191 -0.25585958 0
1.3475909 -2.7641418 -0.22676103 0
1.2578291 -2.4687541 -0.22547796 0
1.2760203 -2.2311745 -0.23745386 0
1.1942115 -1.9416013 -0.21465242 0
1.1537545 -1.6760552 -0.21108165 0
1.1956513 -1.4353896 -0.20250235 0
0.6108911 1.9233347 -0.12155576 0
0.53026015 2.1583459 -0.14108019 0
0.47449353 2.4791288 -0.14000216 0
0.40907159 2.7512207 -0.12724832 0
0.36036432 2.9974549 -0.13946094 0
0.3559643 3.3258026 -0.12029937 0
0.16588372 3.6990047 -0.10568933 0
0.3462311 3.8512478 -0.15579894 0
0.22283405 4.2757001 -0.12031467 0
0.11976969 4.4059153 -0.13787808 0
0.11709166 4.9319634 -0.10478029 0
-0.0083499551 5.006804 -0.10871354 0
0.019972026 5.7140431 -0.07346613 0
-0.1275984 5.9329195 -0.095039271 0
-0.29782367 7.1316419 -0.059966207 0
-0.55866563 9.0096493 -0.014009908 0
2.0874689 -8.8117495 -0.34315941 0
1.8698924 -8.5838995 -0.3018356 0
1.7342582 -6.6878705 -0.29294282 0
1.4415615 -5.4766736 -0.27237177 0
1.3984878 -4.70926 -0.29208565 0
1.3238606 -4.4739151 -0.24147967 0
1.2295336 -3.9595776 -0.26000181 0
1.2701476 -3.8532653 -0.24379283 0
1.1339848 -3.4273224 -0.24667531 0
1.1389661 -3.3147089 -0.22146156 0
1.0677838 -2.8615329 -0.20129576 0
0.96501994 -2.5905759 -0.18747893 0
0.98486567 -2.2718542 -0.19568366 0
0.89445376 -1.9851373 -0.19870867 0
0.79993415 -1.7530184 -0.20301482 0
0.87785029 -1.5352277 -0.14397514 0
0.21054617 2.1717324 -0.12683395 0
0.16403058 2.4035654 -0.11564739 0
0.12451306 2.7649345 -0.11763953 0
0.040982127 2.9360464 -0.090045035 0
0.013100445 3.2998421 -0.096850239 0
-0.014144063 3.6365819 -0.077802308 0
-0.11910501 3.815861 -0.11102074 0
-0.11023641 4.210021 -0.083425231 0
-0.17822355 4.8459959 -0.070712373 0
-0.35177386 4.9849939 -0.084153257 0
-0.41880459 5.6417103 -0.036902532 0
-0.27991873 5.9038181 -0.081741586 0
-0.60438943 7.0992947 -0.039117813 0
-0.88900501 9.2072172 -0.012992874 0
1.6767609 -8.8023891 -0.30820477 0
1.3707345 -6.7558842 -0.26817206 0
1.5100195 -6.5511999 -0.25455222 0
1.1585586 -5.3770156 -0.22836319 0
1.0146475 -4.6222253 -0.23334759 0
1.1611862 -4.5187387 -0.23058861 0
0.93195224 -3.8641486 -0.2031607 0
0.77711874 -3.4388669 -0.20071867 0
0.80019927 -3.25349 -0.19291484 0
0.82753259 -3.0461771 -0.21086821 0
0.69423401 -2.6428299 -0.19180094 0
0.66984701 -2.349436 -0.1887022 0
0.60987508 -2.0693169 -0.1753608 0
0.59613276 -1.8447483 -0.16964404 0
-0.027563751 2.0582387 -0.067369744 0
-0.14497039 2.3858857 -0.098448873 0
-0.13826123 2.6797247 -0.094156474 0
-0.21052659 2.9747818 -0.11074086 0
-0.26809803 3.2892532 -0.090652332 0
-0.27633482 3.6883097 -0.072719805 0
-0.40755984 3.7590508 -0.082021855 0
-0.44628385 4.1904492 -0.060711451 0
-0.40932214 4.3984957 -0.10327819 0
-0.46931881 4.8257995 -0.051135503 0
-0.61136824 4.9999723 -0.073743515 0
-0.68141341 5.8268518 -0.04974883 0
-0.82796288 6.8747263 -0.0022115633 0
-1.0343676 7.0770359 -0.015327275 0
-1.1998999 9.1155205 0.010893986 0
1.3770187 -8.94065 -0.29859316 0
1.1059698 -7.0141592 -0.27860111 0
1.074791 -6.8399677 -0.25359207 0
0.82161796 -5.6438146 -0.23873013 0
0.92297763 -5.4505472 -0.21758528 0
0.66048861 -4.7324109 -0.21822302 0
0.74571991 -4.5765333 -0.19765946 0
0.53112602 -4.150465 -0.21998134 0
0.68558252 -3.9058754 -0.18400511 0
0.50856984 -3.5029542 -0.18499793 0
0.50058091 -3.1666474 -0.19969705 0
0.41857764 -3.0039604 -0.16471164 0
0.37324071 -2.7550783 -0.17184676 0
0.35329598 -2.4156199 -0.16312924 0
0.30342662 -2.1395273 -0.16192004 0
0.28374451 -1.8792106 -0.14334807 0
-0.38384834 2.0303051 -0.047064591 0
-0.42931962 2.307245 -0.086378448 0
-0.43068564 2.6010828 -0.07487978 0
-0.55228364 2.8749726 -0.061673962 0
-0.5598973 3.1924419 -0.076605573 0
-0.47381395 3.3874447 -0.090850584 0
-0.63840073 3.785115 -0.079087347 0
-0.65345055 4.2214108 -0.05783166 0
-0.81071681 4.2848892 -0.064909101 0
-0.68007565 4.8403931 -0.043874934 0
-0.86129665 4.9267626 -0.051390879 0
-0.86944723 5.7134461 -0.025259413 0
-1.0314525 5.7873964 -0.029106706 0
-1.1354995 6.9170175 0.0072418526 0
-1.2846198 7.081934 -0.0049866736 0
-1.5179359 9.098218 0.027682781 0
1.2794113 -8.8305635 -0.27974421 0
1.1109381 -8.7653198 -0.26025313 0
0.83570695 -6.9065166 -0.24271119 0
0.60043353 -5.6468759 -0.22029422 0
0.43953055 -5.5669641 -0.194709 0
0.43026435 -4.7253637 -0.19631553 0
0.41854751 -4.6278028 -0.17734154 0
0.28292596 -4.1783519 -0.20343167 0
0.34043509 -4.0240846 -0.17542711 0
0.25133127 -3.5950294 -0.18158402 0
0.12457132 -3.3015735 -0.19734213 0
0.17904675 -3.0951784 -0.14649695 0
0.11516276 -2.7240186 -0.17422451 0
0.098538935 -2.4259601 -0.16279364 0
0.0040461123 -2.1630788 -0.14268973 0
0.018583715 -1.8868324 -0.10604852 0
-0.68500191 2.0170062 -0.037897538 0
-0.68997777 2.3157928 -0.076056302 0
-0.79035389 2.6125886 -0.075546369 0
-0.7906549 2.8686528 -0.057380985 0
-0.8400318 3.2596002 -0.05059126 0
-0.90545702 3.3290052 -0.067509279 0
-0.9513061 3.6968925 -0.052488834 0
-1.0104719 4.0965109 -0.023621537 0
-1.1640587 4.7131376 -0.0068496466 0
-1.1178771 4.9075708 -0.04019475 0
-1.2116021 5.6561618 -0.0043618679 0
-1.3871264 5.7637901 -0.013735205 0
-1.4615653 7.0241122 0.0085107014 0
-1.7501607 9.036272 0.043505862 0
-1.9481735 9.2188215 0.036553144 0
0.83532983 -9.1288929 -0.27750188 0
0.94701862 -8.7126579 -0.24265732 0
0.47588176 -7.0294676 -0.23128638 0
0.57419467 -6.7691612 -0.20452374 0
0.24081635 -5.5740647 -0.18086782 0
0.18352783 -4.8525815 -0.20032331 0
0.0055162907 -4.6612387 -0.15161216 0
0.1323331 -4.1708546 -0.18941987 0
-0.020030081 -4.066484 -0.15575685 0
-0.039922059 -3.6151931 -0.1629799 0
-0.070156753 -3.3255553 -0.15418653 0
-0.13386434 -3.1159945 -0.12713294 0
-0.15069294 -2.8514268 -0.15139699 0
-0.21438459 -2.4847925 -0.13518912 0
-0.28231442 -2.2049358 -0.11848792 0
-0.35434762 -1.9502091 -0.099908121 0
-0.99931747 1.9649178 -0.04001068 0
-1.0156376 2.2279592 -0.047225777 0
-1.0329717 2.5008836 -0.048910487 0
-1.0638003 2.7799904 -0.033017725 0
-1.1350312 3.1143529 -0.034517206 0
-1.2291001 3.3568735 -0.042901356 0
-1.2523897 3.6848049 -0.048818968 0
-1.2871491 4.0625291 -0.01367861 0
-1.4356437 4.4640679 0.038859896 0
-1.3957081 4.7776289 -0.012741797 0
-1.463431 5.6459298 0.0046493635 0
-1.6612345 5.8089252 -0.012786821 0
-1.7526261 6.9093785 0.031593934 0
-2.0335555 8.8438683 0.071825959 0
-2.2233715 8.968051 0.068941019 0
0.4988656 -8.9600496 -0.2364473 0
0.65169585 -8.8897486 -0.23975454 0
0.36433339 -7.2252316 -0.24891318 0
0.16104114 -6.9562998 -0.19961654 0
-0.0068135262 -5.5493364 -0.15958753 0
-0.074205756 -4.904418 -0.19168618 0
-0.20302129 -4.7551031 -0.1555793 0
-0.27349335 -4.063508 -0.13889655 0
-0.36424547 -3.6662641 -0.15522349 0
-0.2898559 -3.4644818 -0.11004347 0
-0.42239547 -3.1389856 -0.11743084 0
-0.45603535 -2.8609002 -0.12688182 0
-0.47071794 -2.5740154 -0.11955439 0
-0.58653337 -2.2820215 -0.099562362 0
-0.62182188 -1.9686151 -0.087326542 0
-0.72896397 -1.7334433 -0.019664377 0
-1.2406566 1.8966439 -0.036533825 0
-1.2720813 2.1658869 -0.031113427 0
-1.3509395 2.490344 -0.034145217 0
-1.3642211 2.7541287 -0.023343865 0
-1.4453297 3.0724163 -0.03061701 0
-1.552377 3.4680891 -0.0077420771 0
-1.4445505 3.5442164 -0.021094732 0
-1.5817628 4.0331082 -0.008524999 0
-1.7354634 4.5942407 0.019997939 0
-1.9084606 5.4054694 0.046446469 0
-1.8498226 5.7167368 0.0036003143 0
-1.9615488 6.7464323 0.056096226 0
-2.1193364 6.8568296 0.048410594 0
-2.4639862 8.939784 0.08039403 0
0.18745208 -9.1151619 -0.23174818 0
0.33756852 -8.9096556 -0.22031885 0
-0.084926724 -7.0263028 -0.19272989 0
-0.30828881 -5.7546372 -0.17340042 0
-0.15510762 -5.6893673 -0.17225996 0
-0.42114866 -4.8709822 -0.16477078 0
-0.58976585 -4.8169627 -0.14609236 0
-0.56963289 -4.1236534 -0.13681172 0
-0.5629524 -3.6714213 -0.14748445 0
-0.68957025 -3.5227988 -0.10728851 0
-0.71309006 -3.1595185 -0.11350098 0
-0.75437605 -2.9033246 -0.11414328 0
-0.79052651 -2.6339393 -0.1011783 0
-0.87297988 -2.3049455 -0.097622275 0
-0.89979374 -2.0140743 -0.099907577 0
-0.96536958 -1.7674447 -0.043281481 0
-1.6025419 1.3125799 0.054478355 0
-1.5717421 1.598233 -0.01779227 0
-1.541427 1.8621397 -0.049417678 0
-1.5658427 2.0625293 -0.0014404245 0
-1.6909583 2.398464 -0.0085383579 0
-1.6391981 2.6789277 -0.023456849 0
-1.7286055 2.9809988 -0.0096659996 0
-1.7658019 3.3258221 0.013850514 0
-1.8970942 3.8441265 0.020669922 0
-2.0078962 4.4908304 0.035550661 0
-2.1046653 5.3765721 0.052469596 0
-2.1708558 5.5505881 0.03021533 0
-2.3317859 6.7149334 0.069053084 0
-2.3515739 6.7728996 0.063122243 0
-2.7248671 8.6997023 0.10948276 0
0.026191473 -9.0900116 -0.21877536 0
-0.13412595 -8.9638329 -0.19563308 0
-0.39987898 -7.1515837 -0.19009985 0
-0.39129019 -6.9015775 -0.1578894 0
-0.60681063 -5.6630902 -0.14266431 0
-0.68285328 -4.8784475 -0.15328577 0
-0.79532123 -4.7365427 -0.12223049 0
-0.83093059 -4.1140556 -0.12497749 0
-0.99107206 -3.9808567 -0.092439547 0
-0.96446675 -3.5068729 -0.097495869 0
-0.96456003 -3.100776 -0.095198929 0
-0.99719435 -3.0012329 -0.09901458 0
-1.1043842 -2.6006432 -0.071843415 0
-1.182698 -2.3493147 -0.096727476 0
-1.2095947 -2.0198915 -0.069704279 0
-1.2589719 -1.7628163 -0.049384125 0
-1.2798347 -1.5714736 -0.019790906 0
-1.8363631 1.2914906 -0.00077147596 0
-1.7804996 1.4865522 -0.0046598911 0
-1.8485395 1.7894732 -0.0067647249 0
-1.8402818 2.0782518 -0.011196729 0
-1.8973728 2.3382804 0.0040867105 0
-2.0268016 2.6596637 0.014354851 0
-2.026593 2.9147496 0.008153867 0
-2.0626621 3.2673934 0.01062461 0
-2.2136672 3.5987127 0.052894786 0
-2.1783054 3.8313606 0.014479868 0
-2.2850916 4.3929195 0.047184944 0
-2.4122689 5.3421731 0.058738403 0
-2.6187279 6.612184 0.085789353 0
-2.9883571 8.7476606 0.11408053 0
-0.37183535 -8.983285 -0.18330592 0
-0.77218354 -7.0600443 -0.15775618 0
-0.63614857 -6.9115372 -0.14542633 0
-0.96063036 -5.6482325 -0.12392487 0
-1.0495126 -4.7141366 -0.10933943 0
-1.2169371 -3.9862652 -0.089933261 0
-1.2144544 -3.5616736 -0.10898698 0
-1.2892454 -3.2996831 -0.081101358 0
-1.3257574 -3.0070491 -0.075983129 0
-1.3822892 -2.6642783 -0.06010098 0
-1.3955543 -2.4030895 -0.039099999 0
-1.4889109 -2.1318812 -0.045249008 0
-1.5641294 -1.7997267 -0.042774383 0
-1.6277654 -1.5460287 -0.053797718 0
-1.6786993 -1.2742797 0.002557544 0
-2.0397797 0.84805155 0.041405164 0
-2.0459988 1.1557453 0.0027406625 0
-2.0508447 1.4516622 -0.0028626341 0
-2.1282256 1.7276998 -0.0018080249 0
-2.1280181 2.0818348 0.015233308 0
-2.1666708 2.2788801 0.0099934116 0
-2.3057122 2.6510625 0.010267079 0
-2.350651 3.0069275 0.039466817 0
-2.2779951 3.1833055 0.012737043 0
-2.4955354 3.5076637 0.054261975 0
-2.4307935 3.7456336 0.018628784 0
-2.5531366 4.3565011 0.046857223 0
-2.7836924 4.9790144 0.10331719 0
-2.7086129 5.2640395 0.068231486 0
-2.8107891 6.2885113 0.12273166 0
-2.9428267 6.5939121 0.092512228 0
-3.1936793 8.6137609 0.13109496 0
-0.69301307 -9.0488882 -0.17162842 0
-1.0091269 -6.9364805 -0.13001102 0
-1.2204936 -5.6651983 -0.1165989 0
-1.3512 -5.5453892 -0.093511254 0
-1.3277974 -4.7769389 -0.11356996 0
-1.4687638 -4.6363449 -0.08549922 0
-1.470998 -3.9417219 -0.079267263 0
-1.5903707 -3.3525331 -0.066289067 0
-1.6831501 -3.0914884 -0.059109777 0
-1.6974577 -2.7910159 -0.0387346 0
-1.7494426 -2.4569004 -0.03833032 0
-1.7671367 -2.1000557 -0.026657406 0
-1.8629453 -1.8446825 -0.030636929 0
-1.8955014 -1.5176198 -0.009661749 0
-1.9137336 -1.2587211 -0.010391863 0
-1.9928789 -1.0214236 0.005648612 0
-2.0359581 -0.73927891 0.018907523 0
-2.1286025 -0.39605528 0.037862845 0
-2.2233925 -0.080290794 0.012103875 0
-2.255228 0.18337175 0.028252576 0
-2.2506406 0.48992708 0.00088172778 0
-2.2408264 0.77839106 0.011853706 0
-2.3162827 1.1063492 0.026144795 0
-2.3600979 1.3982342 0.029281978 0
-2.4187171 1.6994313 0.034057632 0
-2.4650524 1.9730678 0.024714831 0
-2.5789754 2.2715466 0.031285316 0
-2.5032077 2.4986324 0.016228542 0
-2.6054542 2.8387032 0.046385657 0
-2.5195093 3.0663619 0.015419818 0
-2.6788619 3.3922324 0.061779097 0
-2.8754988 4.071846 0.077000827 0
-2.8922579 4.3318005 0.039950132 0
-2.9997182 4.9628248 0.10259177 0
-3.2493286 6.5187855 0.10347324 0
-3.5568252 8.4599724 0.15312125 0
-1.0065094 -8.9737473 -0.14683528 0
-1.2777909 -7.055058 -0.13329472 0
-1.3338976 -6.6501799 -0.078377217 0
-1.6090525 -5.7470827 -0.11750031 0
-1.5512941 -5.5101175 -0.082455769 0
-1.7031231 -4.5732398 -0.071807742 0
-1.7900544 -4.3971028 -0.040132105 0
-1.7622535 -3.8726587 -0.067492478 0
-1.7925127 -3.7567489 -0.044830061 0
-1.9363438 -3.1115642 -0.026364781 0
-2.0221124 -2.7320366 -0.047941525 0
-2.0364075 -2.633137 -0.026540458 0
-2.0864482 -2.2009456 -0.022991657 0
-2.0946035 -1.9114234 -0.015198585 0
-2.2114017 -1.631633 -0.016964473 0
-2.2129567 -1.3362318 0.0073236395 0
-2.2967122 -1.020828 0.013042773 0
-2.3530335 -0.7280255 0.019877659 0
-2.3828371 -0.45071024 0.025626572 0
-2.3986008 -0.15669371 0.017559785 0
-2.5226281 0.14583001 0.015345707 0
-2.5602646 0.40933901 0.020311691 0
-2.5697706 0.772928 0.028797522 0
-2.6508789 1.0721006 0.01974448 0
-2.6787221 1.3358531 0.033837087 0
-2.7412243 1.6113119 0.033594541 0
-2.8214061 2.0096729 0.052665517 0
-2.8615773 2.0927603 0.034867454 0
-2.8818207 2.523108 0.067458466 0
-2.8850226 2.7772007 0.028855905 0
-2.9730277 3.1761594 0.073490061 0
-2.9047225 3.3791265 0.048838399 0
-3.1595995 3.9577482 0.080135472 0
-3.3211446 4.9165311 0.10238466 0
-3.5592227 6.1808743 0.13872075 0
-3.4298587 6.3275275 0.12382202 0
-3.8641961 8.3707714 0.16741639 0
-1.3335088 -9.0300608 -0.1360098 0
-1.6677608 -7.0709453 -0.11989536 0
-1.6073848 -6.7887597 -0.085864656 0
-1.8603259 -5.4946332 -0.073192939 0
-2.0789342 -4.3342052 -0.030158363 0
-2.0189538 -3.8944366 -0.076633267 0
-2.0773225 -3.675631 -0.035769574 0
-2.1761599 -3.4788671 -0.0015846193 0
-2.253896 -3.1334703 -0.04912436 0
-2.3083773 -2.890193 -0.0038128011 0
-2.3184996 -2.5425975 -0.016549673 0
-2.3335717 -2.226882 0.030457448 0
-2.421603 -1.9792382 0.0057698116 0
-2.5007706 -1.6630882 0.028771449 0
-2.5034173 -1.341198 0.018096304 0
-2.5747561 -1.0466642 0.036806919 0
-2.6474774 -0.81108397 0.0229067 0
-2.6925662 -0.4823038 0.027826015 0
-2.6942117 -0.18086664 0.029571731 0
-2.7927709 0.099850357 0.038254641 0
-2.8685215 0.40495598 0.048044525 0
-2.8398182 0.69912773 0.041783385 0
-2.9779832 1.0105855 0.053173646 0
-2.9327829 1.2572551 0.03913632 0
-3.0452921 1.5656962 0.073892325 0
-2.9728374 1.8191755 0.055682767 0
-3.1582634 2.2625077 0.070593566 0
-3.1306419 2.3769867 0.059060372 0
-3.24757 3.0357001 0.070298903 0
-3.3212662 3.7542334 0.09825439 0
-3.6258008 4.6508389 0.12500545 0
-3.5624814 4.8181815 0.10801148 0
-3.8284137 6.274199 0.12951991 0
-4.1215816 8.3571205 0.17376196 0
-1.5717241 -8.9923553 -0.12065679 0
-1.7171767 -8.8939686 -0.10386857 0
-1.8414071 -6.7148519 -0.068188831 0
-1.894833 -6.4435859 -0.031880073 0
-2.0471625 -5.4145956 -0.057982035 0
-2.2086277 -5.2671704 -0.034164883 0
-2.3457751 -4.3042855 -0.028313048 0
-2.4504375 -4.2281361 -0.017513789 0
-2.4566369 -3.4515047 -0.0090975314 0
-2.62816 -3.253098 0.017217204 0
-2.6543572 -2.7824185 -0.011156294 0
-2.6850958 -2.6239357 0.01493106 0
-2.651891 -2.3760734 0.029123582 0
-2.7154324 -2.0573957 0.014139954 0
-2.7451534 -1.7172785 0.037660085 0
-2.7750247 -1.4031202 0.023438767 0
-2.893141 -1.1260245 0.039431978 0
-2.8706012 -0.80139482 0.065114871 0
-2.9885314 -0.5651772 0.044275418 0
-3.014369 -0.26074162 0.0415316 0
-3.0669577 0.046660841 0.067958415 0
-3.1141694 0.34833726 0.07113421 0
-3.117224 0.6460979 0.046149138 0
-3.2058454 0.8959918 0.068114325 0
-3.2474751 1.1896511 0.07409212 0
-3.3029788 1.4311893 0.043131288 0
-3.3698816 1.8419199 0.090938345 0
-3.3153136 2.149251 0.064382657 0
-3.5725579 2.3638113 0.11911954 0
-3.515733 2.7500372 0.081411362 0
-3.5204563 2.8759468 0.066015303 0
-3.6926301 3.2943518 0.12959126 0
-3.6180601 3.5537231 0.10484377 0
-3.8182344 4.5689673 0.12776083 0
-3.9853699 5.9441962 0.1602753 0
-4.1300511 6.1632118 0.13895366 0
-4.35779 8.1174879 0.19634253 0
-1.8660196 -8.8262835 -0.090341359 0
-2.2331407 -6.7451878 -0.060705058 0
-2.4299011 -6.5505791 -0.031438284 0
-2.4774823 -5.2625289 -0.031991661 0
-2.5273552 -5.0100322 0.0049588829 0
-2.6361349 -4.2079539 -0.01870086 0
-2.7729092 -3.8968837 0.026979767 0
-2.8521559 -3.2414019 0.0049879216 0
-2.9113426 -2.9748383 0.045017298 0
-2.9156148 -2.669636 -0.016033284 0
-3.0037577 -2.3592453 0.026270859 0
-3.0362208 -2.083571 0.032932475 0
-3.0901506 -1.7514136 0.058407784 0
-3.1165948 -1.4251738 0.049422111 0
-3.161026 -1.1334535 0.061566167 0
-3.2480114 -0.84815073 0.07324893 0
-3.2713358 -0.53998071 0.071491443 0
-3.3086381 -0.30102912 0.076480672 0
-3.467062 0.04440102 0.071228966 0
-3.4435492 0.33777043 0.075594738 0
-3.4175365 0.61445314 0.074582711 0
-3.4671566 0.89204544 0.052545577 0
-3.6583245 1.2709689 0.096258596 0
-3.520365 1.4916124 0.10117265 0
-3.6336226 1.7572261 0.061136842 0
-3.7500293 2.0950222 0.12563956 0
-3.7604995 2.3398883 0.10069955 0
-3.7136984 2.6402745 0.074143469 0
-3.9396236 2.8070631 0.16100883 0
-3.8788481 3.2336102 0.12275118 0
-4.0536666 4.2312398 0.15402992 0
-4.1144886 4.4455814 0.12979165 0
-4.3710623 5.642962 0.18423492 0
-4.2620058 5.8035235 0.17105687 0
-4.6227055 7.7861676 0.22502987 0
-4.5759983 8.0215406 0.20695496 0
-2.1201758 -8.8775988 -0.084874526 0
-2.322926 -8.6966858 -0.05840306 0
-2.5590396 -6.5477414 -0.028375968 0
-2.7971282 -5.033639 0.00025729835 0
-2.9578247 -4.0690184 -0.0066162497 0
-3.0708203 -3.8563533 0.021687534 0
-3.1546516 -3.6883454 0.043130834 0
-3.1671138 -3.0042927 0.020172633 0
-3.25564 -2.7564445 0.050789949 0
-3.3894751 -2.3561153 0.094616272 0
-3.2605445 -2.0492456 0.042545512 0
-3.4082408 -1.8450845 0.050265837 0
-3.4728427 -1.5190064 0.080247894 0
-3.6066833 -0.95616055 0.11296827 0
-3.5997677 -0.63005942 0.097368546 0
-3.6427355 -0.10874522 0.084086969 0
-3.8514395 0.32894427 0.099187873 0
-3.7947354 0.61257225 0.10417999 0
-3.7876899 0.87193233 0.096585289 0
-3.8238566 1.1519969 0.076865703 0
-4.0200405 1.7831867 0.11854069 0
-3.9356065 1.9869714 0.11288432 0
-4.2663188 2.7275786 0.14038517 0
-4.1567969 2.8936372 0.13455346 0
-4.0921454 3.1303778 0.11709541 0
-4.3825378 3.8600466 0.17453751 0
-4.2457013 4.0725756 0.16130546 0
-4.5839925 5.517849 0.19195583 0
-4.9943047 7.7929692 0.22880551 0
-4.9210768 7.9790292 0.21454687 0
-2.5461664 -8.9205456 -0.072593167 0
-2.8329706 -6.5702667 -0.02633477 0
-3.0252314 -6.3865395 -0.0011615232 0
-2.9932714 -5.2586188 -0.033019595 0
-3.1692848 -4.8423667 0.022752091 0
-3.3113389 -4.6037407 0.052547716 0
-3.2710695 -3.5662971 0.055121351 0
-3.3805542 -3.4391422 0.067185916 0
-3.5243111 -2.7930183 0.020846989 0
-3.5854232 -2.5012984 0.054952856 0
-3.6947596 -2.2192683 0.079647891 0
-3.5919178 -1.669634 0.045902833 0
-3.6814971 -1.2751927 0.073647484 0
-3.7836213 -0.89432544 0.088897407 0
-3.7305756 -0.74959493 0.1074351 0
-3.8531134 -0.39625233 0.08732041 0
-3.9425049 -0.092390239 0.081022315 0
-3.9498694 0.2032159 0.082649663 0
-4.0664902 0.49841845 0.11710648 0
-3.9525547 0.73756826 0.074078187 0
-4.1309276 1.1127913 0.14325348 0
-4.2208948 1.4105873 0.11628108 0
-4.2350388 1.6695087 0.099048316 0
-4.4568996 2.0678489 0.17323413 0
-4.3711805 2.3011768 0.16518474 0
-4.4048796 2.5620985 0.14183062 0
-4.6299505 3.7433333 0.17188659 0
-4.8560157 5.2724638 0.20747524 0
-5.2730751 7.6377254 0.24225755 0
-5.2699842 7.9242744 0.22200364 0
-2.6806526 -8.7998409 -0.055586949 0
-2.8547812 -8.5476637 -0.024439901 0
-3.2579665 -6.4434352 -0.0056062564 0
-3.352283 -6.2136259 0.022503741 0
-3.5399647 -4.5828624 0.049717396 0
-3.6570573 -3.5446632 0.036071997 0
-3.7024078 -3.404403 0.052226562 0
-3.8138335 -3.2146409 0.069690168 0
-3.8644376 -2.8466651 0.11139846 0
-3.916707 -2.1359301 0.06457676 0
-3.9574409 -1.9012177 0.085385159 0
-4.0197687 -1.6031432 0.10707948 0
-4.0414281 -1.3007922 0.13013956 0
-4.2100115 -1.164366 0.11803918 0
-4.2149725 -0.73908997 0.14293021 0
-4.1515384 -0.34763715 0.15063471 0
-4.3202591 -0.074523091 0.13265377 0
-4.3746901 0.17962295 0.12729195 0
-4.4017234 0.40309441 0.12314878 0
-4.3396773 0.76765203 0.12601624 0
-4.2922945 0.94611663 0.12761095 0
-4.5251703 1.6110377 0.1927195 0
-4.5597658 1.9326471 0.17124136 0
-4.5026674 2.1815886 0.16104525 0
-4.8482141 3.465863 0.18218619 0
-4.8570814 3.7282758 0.16044414 0
-5.1189017 5.1923862 0.20799753 0
-5.497684 7.5391569 0.25047624 0
-3.1769705 -8.5144062 -0.011037707 0
-3.5897629 -6.2628579 0.017794922 0
-3.629261 -5.9554682 0.053592093 0
-3.7533536 -4.5299983 0.050586231 0
-3.8941262 -4.3801684 0.064801097 0
-3.9761124 -4.1694231 0.087747544 0
-3.8732023 -3.3864367 0.043325067 0
-3.9257915 -3.1981583 0.063843206 0
-4.0499597 -2.8570707 0.095855385 0
-4.190836 -2.5442429 0.11893979 0
-4.2915773 -2.2805459 0.13673779 0
-4.3879747 -1.7230321 0.17707041 0
-4.3067985 -1.0371286 0.11334263 0
-4.3825345 -0.82461125 0.11536648 0
-4.4123497 -0.52462423 0.10747597 0
-4.4437971 -0.20242408 0.11242222 0
-4.8277678 0.64118934 0.18962388 0
-4.8606586 0.89625496 0.18145619 0
-4.8826671 1.5549018 0.15706342 0
-4.8189316 1.8527381 0.14914823 0
-5.1986852 2.855283 0.20296192 0
-5.0868735 3.0810378 0.19545761 0
-5.0724812 3.3736567 0.17546624 0
-5.3929229 4.8545165 0.22641213 0
-5.3044271 5.0259185 0.21611376 0
-5.7772822 7.248796 0.27101696 0
-3.4847322 -8.4264793 0.0062676668 0
-3.6346617 -8.1686344 0.03515251 0
-3.9120352 -5.9490809 0.053840369 0
-4.1902657 -4.1043077 0.086758539 0
-4.1625037 -3.7967975 0.12361793 0
-4.3395395 -2.8519273 0.07277666 0
-4.5105624 -2.2393522 0.12022015 0
-4.4965343 -1.9968729 0.14346258 0
-4.630199 -1.7342181 0.15143266 0
-4.7368965 -1.5041442 0.15679376 0
-4.6110458 -1.0391173 0.19872643 0
-4.7830014 -0.78660107 0.19152987 0
-4.9049959 -0.51163793 0.17023149 0
-4.9727788 -0.26692057 0.16871908 0
-4.878376 0.025509536 0.18415686 0
-4.9940557 0.32233942 0.17240645 0
-5.0256953 0.60669756 0.1670617 0
-4.9520259 0.9695853 0.16922097 0
-5.0315123 1.2805328 0.15142488 0
-4.9792018 1.4474398 0.15112215 0
-5.4474821 2.528574 0.20416804 0
-5.3836112 2.7247233 0.1976696 0
-5.6019678 4.46667 0.24720168 0
-5.6538162 4.8341503 0.21990791 0
-6.1263242 6.9232616 0.29215282 0
-6.0747237 7.1079845 0.28047347 0
-3.814806 -8.1893215 0.037404597 0
-3.9595318 -8.1264038 0.046608195 0
-4.2016568 -5.8238831 0.0662857 0
-4.2725325 -5.603838 0.089732029 0
-4.5063558 -3.8435452 0.10182942 0
-4.7010269 -3.6085925 0.11677752 0
-4.6829848 -3.278084 0.15138105 0
-4.8117652 -1.9985068 0.11200786 0
-4.816967 -1.7156942 0.133503 0
-4.8294921 -1.3563663 0.15654753 0
-4.931242 -1.1784241 0.15564758 0
-5.0071068 -0.95971692 0.15858035 0
-4.9659204 -0.60531205 0.16025494 0
-5.1752586 -0.28112093 0.14511684 0
-5.1311512 0.025233924 0.15504587 0
-5.5353045 2.0743475 0.21960703 0
-5.522222 2.3392725 0.20823669 0
-5.943922 4.1859026 0.25297374 0
-5.8853388 4.3744197 0.24326478 0
-6.3424053 6.8059344 0.2988072 0
-4.2052231 -8.2703648 0.037980258 0
-4.218586 -7.9397664 0.069377288 0
-4.5011683 -5.6012917 0.087306999 0
-4.6786799 -5.4236012 0.10339451 0
-4.9861083 -3.2483327 0.13594708 0
-4.9903436 -2.9496903 0.16306154 0
-5.1842828 -2.6032481 0.17924587 0
-5.7763376 1.2592912 0.226555 0
-5.713531 1.4488089 0.22711189 0
-5.739037 1.7169352 0.21686 0
-5.7969093 1.9499878 0.20369729 0
-6.1200848 3.2321734 0.29841742 0
-6.1910806 3.5442376 0.27937031 0
-6.1409144 3.8712552 0.26367566 0
-6.0599127 4.0404944 0.25723046 0
-6.559762 6.2416353 0.33108169 0
-6.6684885 6.5686874 0.31134695 0
-6.6125598 6.7415195 0.30147952 0
-4.5206547 -8.002697 0.068650559 0
-4.645534 -7.738739 0.094858646 0
-4.8310165 -5.3149881 0.11191837 0
-4.9930806 -5.2154899 0.11866354 0
-5.2865334 -2.831049 0.15342903 0
-5.2753668 -2.3720198 0.19048426 0
-5.492662 -2.1952794 0.18669586 0
-5.5916939 -2.017067 0.19085586 0
-5.6443706 -1.6088105 0.21043603 0
-5.658596 -1.3045344 0.22446001 0
-5.8952928 -0.13291192 0.22179949 0
-5.9732447 0.7794261 0.21696405 0
-5.9251637 1.082585 0.21713266 0
-6.4950371 3.5730112 0.26395285 0
-6.264503 3.72946 0.26621678 0
-6.8839645 6.3307557 0.32328165 0
-4.8632183 -7.7957797 0.092519641 0
-4.9492087 -7.6312928 0.10836514 0
-5.1819377 -5.1411076 0.12179828 0
-5.2431774 -4.8499947 0.14811574 0
-5.3386765 -4.6030622 0.16847184 0
-5.5420618 -2.6737866 0.14811823 0
-5.6632805 -1.8807831 0.19355814 0
-5.7056293 -1.627738 0.204529 0
-5.8897018 -1.3610287 0.20253822 0
-5.9100027 -1.0496364 0.21390069 0
-5.9112234 -0.73949265 0.20719717 0
-5.9288125 -0.43733579 0.21341844 0
-5.9301615 -0.1345126 0.21881457 0
-6.0452733 0.16848683 0.21156466 0
-6.0720158 0.47996885 0.20990603 0
-6.6575093 2.557374 0.29941401 0
-6.6203227 2.8717058 0.28954852 0
-6.5156455 3.2310865 0.27939743 0
-7.1286964 5.8064899 0.34885287 0
-6.9889488 5.9976106 0.34050009 0
-7.0278759 6.2443981 0.32669276 0
-5.1904149 -7.5649776 0.11663262 0
-5.5121007 -4.5923996 0.16419064 0
-5.6526318 -4.3871379 0.1776467 0
-5.7363772 -4.1414142 0.19564642 0
-6.7994647 2.1573308 0.30420792 0
-6.8155184 2.419837 0.29544264 0
-6.8151269 2.7513976 0.28404933 0
-6.8105545 3.1629584 0.26783732 0
-7.4260635 5.5368385 0.3581903 0
-7.3520708 5.6803756 0.35224169 0
-5.4523211 -7.5219493 0.12248755 0
-5.4614434 -7.2593913 0.14527884 0
-6.0013371 -4.1051593 0.1886787 0
-6.0967841 -3.7937214 0.20923589 0
-6.1872234 -3.4889712 0.22795853 0
-6.9992919 1.5173635 0.30702373 0
-7.1413393 1.8687843 0.29193497 0
-7.1102839 2.0558832 0.28937632 0
-7.5347452 5.3217196 0.3666136 0
-5.8105745 -7.3256264 0.14112698 0
-5.9631481 -7.1263981 0.15823734 0
-6.3920474 -3.3927898 0.22553098 0
-6.4741769 -3.225214 0.23298192 0
-6.5240469 -2.9740591 0.2466971 0
-6.6900253 -2.6424279 0.25798517 0
-6.8087902 -2.0336428 0.28294837 0
-6.9005208 -1.3696237 0.30486205 0
-7.0951476 -0.29971117 0.30270147 0
-7.1888881 0.24784589 0.30255955 0
-7.19629 0.55568194 0.30302858 0
-7.1670551 0.98540127 0.30328521 0
-7.1401658 1.2318798 0.30261561 0
-7.1177053 1.4159098 0.30160052 0
-7.224442 1.6940105 0.29068139 0
-7.9314666 4.7312942 0.38472715 0
-7.7483668 5.0851674 0.37347457 0
-6.1942115 -7.023221 0.16679978 0
-6.2674398 -6.7407937 0.18952239 0
-6.7045593 -2.851697 0.24515158 0
-6.9151893 -2.4641457 0.25581768 0
-6.8359771 -2.2361813 0.27176169 0
-7.0897236 -1.8589354 0.2748861 0
-7.0511189 -1.5913014 0.28789604 0
-7.1079273 -1.2251441 0.29742897 0
-7.1303396 -0.9165709 0.28783399 0
-7.2720351 -0.62141871 0.28610542 0
-7.2695417 -0.30890113 0.29172379 0
-7.2887902 0.00067555904 0.294505 0
-7.2954936 0.56257474 0.29681811 0
-7.2976475 0.81362903 0.29634517 0
-8.0543489 4.4377198 0.39343584 0
-8.0611458 4.6233034 0.38622075 0
-8.016922 4.9707389 0.37317401 0
-6.4074183 -6.54071 0.20484546 0
-6.5713029 -6.3671217 0.21746577 0
-8.3307486 4.1348128 0.39763823 0
-8.2072783 4.3403835 0.39348158 0
-6.738781 -6.308362 0.22081617 0
-6.9132347 -6.1416225 0.23177966 0
-8.6419125 3.488142 0.40913346 0
-8.5155754 3.6946397 0.40673983 0
-8.4289465 3.9173174 0.40228859 0
-7.1402807 -6.0216689 0.23829803 0
-7.1995354 -5.7556219 0.25640306 0
-7.3831401 -5.5956378 0.26505199 0
-8.7209711 3.0089865 0.41864759 0
-8.7736292 3.2808437 0.41073656 0
-7.4924097 -5.4772477 0.27144057 0
-7.6443605 -5.2897916 0.28132311 0
-7.8320589 -4.932528 0.30051792 0
-8.9902258 2.3443036 0.4228135 0
-8.9756756 2.6724253 0.41779432 0
-9.0244398 2.9407945 0.41113409 0
-7.838233 -5.1297722 0.28821331 0
-8.0199451 -4.7667117 0.30680606 0
-8.130311 -4.4580173 0.32228291 0
-8.270606 -4.1708107 0.33483818 0
-9.2206221 1.4949443 0.42438659 0
-9.1224356 1.7213545 0.42593297 0
-9.2214117 2.0684114 0.41916186 0
-8.4399681 -3.8974631 0.34491327 0
-8.3929729 -3.6126275 0.36015669 0
-8.5713358 -3.2589698 0.37167978 0
-8.760128 -2.9915504 0.37778312 0
-8.7639999 -2.6584373 0.39086479 0
-8.8730841 -2.1167603 0.40665346 0
-9.151576 0.21594191 0.42622733 0
-9.1819849 0.61201954 0.42711931 0
-9.3463326 0.86293876 0.42195249 0
-9.258193 1.0962816 0.42472517 0
-9.2341242 1.3350524 0.42478687 0
-8.7689695 -3.6014881 0.35080406 0
-8.9933815 -2.3949692 0.39350706 0
-9.117732 -2.0124559 0.40220705 0
-9.0291901 -1.8291947 0.41055077 0
-9.1856413 -1.6166216 0.41138732 0
-9.3012285 -1.2277458 0.40009585 0
-9.1717367 -0.96918851 0.40977067 0
-9.3570633 -0.66690737 0.40885505 0
-9.3558092 -0.34285808 0.41359824 0
-9.3081665 -0.02119112 0.41883641 0
-9.3692694 0.38038421 0.41976202 0
-9.3806429 -1.4037901 0.39344308 0
10.61631 -0.53882992 -0.49826622 0
10.306436 -1.8052485 -0.51640385 0
10.260792 -1.1661536 -0.47929341 0
10.414127 -0.85111785 -0.48499808 0
10.393036 -0.67222047 -0.47476199 0
10.637683 2.4325962 -0.38912249 0
9.7207623 -3.1596532 -0.5227381 0
9.8118887 -2.6330519 -0.50091124 0
9.8364792 -2.2759552 -0.4829714 0
10.024103 -2.0739894 -0.49514654 0
10.151923 -1.3129554 -0.47224915 0
10.22337 -0.98273885 -0.46618891 0
9.4466143 -3.8020296 -0.53350776 0
9.5443621 -3.5569274 -0.52806866 0
9.6098747 -3.2975888 -0.51838821 0
9.6479769 -2.9337473 -0.49940369 0
9.720459 -2.7793922 -0.49860501 0
9.7438736 -2.4206815 -0.47985622 0
9.0974846 -4.3024383 -0.52951276 0
9.0718679 -3.9780827 -0.50229263 0
9.2042532 -3.8590343 -0.50907165 0
8.6809864 -4.9703565 -0.5351299 0
8.7412996 -4.7963896 -0.52771151 0
8.748827 -4.3756962 -0.49526182 0
9.8071461 5.4292336 -0.29646224 0
8.3653154 -5.2750015 -0.52610207 0
8.4953947 -5.0444632 -0.52082276 0
9.6728764 5.556695 -0.28260738 0
7.9564886 -5.727169 -0.52219158 0
8.0833235 -5.6074347 -0.52482116 0
8.572155 -0.45250404 -0.44839251 0
9.3898888 6.188921 -0.26322961 0
7.7161436 -5.7315841 -0.49775475 0
8.1364546 -1.2536681 -0.4256219 0
8.1631813 -0.98046148 -0.41327739 0
8.2596292 -0.72860885 -0.41403857 0
8.37815 -0.40937477 -0.41618586 0
8.4013681 -0.1408639 -0.40716961 0
8.5634851 0.13273324 -0.38433594 0
8.5213223 0.54989839 -0.36265522 0
8.5132933 0.75462353 -0.35504189 0
8.5664186 1.0238972 -0.35609436 0
8.5210228 1.430464 -0.33994934 0
8.5359573 2.0427322 -0.33376428 0
8.6258154 2.1909337 -0.34674987 0
7.8590508 -2.3958137 -0.46512884 0
7.9247489 -2.1969337 -0.45931268 0
7.9839582 -1.8485812 -0.44243735 0
7.9687967 -1.4783692 -0.414646 0
8.4317951 2.3706572 -0.31528839 0
8.4201746 3.1316557 -0.31504396 0
8.9689751 6.9498491 -0.23685248 0
7.1287012 -6.3625193 -0.49811444 0
7.3074431 -3.1882186 -0.45496193 0
7.4814425 -3.0554028 -0.4670195 0
7.4420419 -2.7119341 -0.43143409 0
7.6068454 -2.4939804 -0.43665966 0
8.3235216 3.3893862 -0.30270472 0
8.1398516 3.6169786 -0.27782038 0
8.6906452 7.1755686 -0.21331458 0
8.6079664 7.3298602 -0.20972379 0
7.0893807 -3.7140532 -0.47578961 0
7.1387067 -3.319299 -0.44420606 0
8.044817 3.7978752 -0.26663315 0
8.0650606 4.1681576 -0.27767628 0
6.3340268 -7.0328388 -0.49104685 0
6.6289549 -4.0484023 -0.45033619 0
6.8627138 -3.7978396 -0.45446983 0
6.9359422 -3.4218187 -0.42671967 0
6.9331231 -1.1477423 -0.4180553 0
7.0323038 -0.29130286 -0.37760875 0
7.0686445 -0.014115334 -0.36891222 0
7.0977869 0.45560008 -0.31718212 0
7.2183361 0.78126019 -0.32773247 0
7.2154989 1.3437831 -0.31263378 0
7.7646184 4.4803052 -0.24170664 0
7.7474799 4.7729249 -0.24868375 0
8.034729 7.9756975 -0.17388736 0
6.1903706 -7.1303344 -0.48843384 0
6.351778 -4.5515556 -0.47072634 0
6.4108362 -4.4124532 -0.46246547 0
6.3732343 -4.0894556 -0.42263609 0
6.5594773 -3.8047149 -0.4159613 0
6.6411347 -1.392525 -0.38694924 0
6.8499231 -0.99529636 -0.39172879 0
6.8267908 -0.80897361 -0.37403971 0
6.9389114 -0.5543685 -0.37693703 0
6.9751716 -0.10779935 -0.35675287 0
6.850255 0.13746861 -0.32103938 0
7.0147715 0.35504699 -0.30598339 0
7.0662236 0.57068938 -0.30682281 0
7.0896459 1.0111215 -0.29687923 0
7.1166306 1.1208434 -0.29907402 0
7.1253252 1.5645324 -0.29229993 0
7.1130924 2.1203337 -0.28588095 0
7.0908904 2.5144444 -0.28320193 0
7.4491544 5.1491981 -0.22002846 0
7.3664174 5.3360844 -0.21623197 0
7.8065548 8.2356091 -0.16175753 0
7.6876035 8.3612776 -0.15543315 0
5.7582622 -7.4236608 -0.48232621 0
6.0833988 -4.6693811 -0.45224476 0
6.237886 -2.1888494 -0.39377877 0
6.3513498 -1.9971747 -0.39324638 0
6.490509 -1.6907988 -0.38736987 0
6.5166578 -1.3370132 -0.36051908 0
6.5221539 -1.1039255 -0.34229866 0
6.8904181 2.752809 -0.24946392 0
6.8811059 3.1517787 -0.25532994 0
7.2656646 5.512794 -0.21021536 0
7.1503596 5.6794138 -0.2023178 0
7.5462866 8.4632092 -0.14603452 0
5.7020545 -4.9668202 -0.44323859 0
5.7879591 -4.7460475 -0.42675617 0
5.9004617 -4.464046 -0.40706873 0
5.9254436 -2.7952254 -0.41088212 0
6.0544944 -2.4697061 -0.39416653 0
6.0069408 -2.2353287 -0.36120731 0
6.1584053 -1.8837674 -0.34984156 0
6.3586888 -0.17747927 -0.40761942 0
6.2849536 0.24015385 -0.36676198 0
6.2027307 0.37547955 -0.30828899 0
6.2183547 0.66285241 -0.29858419 0
6.3024673 1.0415697 -0.30358532 0
6.7614865 3.4047105 -0.24084975 0
6.6980839 3.7392871 -0.24094239 0
7.0513725 5.7745495 -0.19366702 0
7.0066962 5.995173 -0.19913742 0
6.9026165 6.3542337 -0.20524642 0
7.2217517 8.7476492 -0.12811646 0
5.3561554 -5.1927319 -0.43291807 0
5.4970179 -5.0367775 -0.42898637 0
5.5870619 -3.0996244 -0.39651155 0
5.605063 -2.8207355 -0.36491987 0
5.8160229 -2.4332819 -0.35239691 0
5.6736445 -1.6008282 -0.39819843 0
5.790062 -0.95744884 -0.35396859 0
5.8764353 -0.78859496 -0.35579953 0
5.9937477 -0.4096123 -0.34854949 0
5.956532 -0.077899456 -0.31691769 0
6.0215335 0.14492196 -0.31646371 0
6.0755363 0.53744137 -0.27349913 0
6.1399889 0.81272596 -0.27609819 0
6.1609578 1.1402799 -0.27057943 0
6.1410046 1.4674075 -0.25995412 0
6.0871978 1.7445087 -0.24585128 0
6.1903286 1.9925725 -0.26778501 0
6.1376734 2.1774254 -0.25761166 0
6.1666088 2.5751858 -0.26987046 0
6.4864206 4.007688 -0.21547017 0
6.3588524 4.3165851 -0.20858701 0
6.6400671 6.3088927 -0.16896051 0
7.0029025 8.8877411 -0.11430064 0
6.8753438 9.0037251 -0.10838349 0
5.0325804 -5.4525747 -0.43183449 0
5.1457701 -5.2478914 -0.41760504 0
5.1778636 -3.653141 -0.4103128 0
5.3469872 -3.337204 -0.39195907 0
5.456327 -2.9810739 -0.36235774 0
5.4084363 -2.1343749 -0.41358444 0
5.3916254 -1.7672946 -0.36463204 0
5.380444 -1.5924131 -0.34175581 0
5.572937 -1.2718933 -0.34292793 0
5.692533 -1.0688725 -0.34535053 0
5.7153282 -0.5776968 -0.30472726 0
5.780406 -0.40765601 -0.30416757 0
6.0050001 2.3904641 -0.23247592 0
5.9813199 2.722528 -0.23493142 0
6.0052443 2.9281547 -0.24631798 0
6.0206089 3.1379247 -0.2569764 0
6.3261638 4.4258852 -0.20889209 0
6.0939918 4.6727691 -0.18503141 0
6.1031508 4.9488721 -0.20375009 0
6.4696054 6.5191913 -0.16029596 0
6.673388 9.311945 -0.10641587 0
4.6284561 -5.7183876 -0.42648351 0
4.7573028 -5.5261197 -0.41391793 0
4.874249 -3.8217356 -0.39318252 0
4.9882975 -3.6938488 -0.39040434 0
4.9812751 -3.2704418 -0.33186042 0
4.9917378 -2.3643265 -0.37120429 0
5.0832987 -2.1320872 -0.35540617 0
5.2129321 -1.8171345 -0.33787173 0
5.1943626 -0.65045446 -0.34006265 0
5.2157464 -0.33618367 -0.31421563 0
5.3886895 -0.059766948 -0.33092022 0
5.3926916 0.27735162 -0.3076227 0
5.4743505 0.61823899 -0.27528316 0
5.4223099 0.8851608 -0.25129494 0
5.5519109 1.1540579 -0.27421293 0
5.4907951 1.4429561 -0.25392947 0
5.4781446 1.6882845 -0.24893954 0
5.8261657 2.869596 -0.20742764 0
5.8885136 3.1906378 -0.23236358 0
5.7468729 3.4385414 -0.21573761 0
6.0521498 4.7774725 -0.18474747 0
5.9060221 5.0128155 -0.17706725 0
6.252419 6.6838207 -0.14385718 0
6.3697853 9.4847651 -0.08894299 0
4.3283396 -6.0531588 -0.44320488 0
4.4179811 -5.761919 -0.41263017 0
4.5703807 -4.0767326 -0.39139587 0
4.6253185 -3.8654222 -0.36754858 0
4.6612773 -3.7300918 -0.35275751 0
4.6089597 -2.8678317 -0.38240811 0
4.688426 -2.6037269 -0.35507792 0
4.7939949 -2.4427679 -0.34887522 0
4.9243102 -1.211889 -0.34618327 0
4.9928908 -0.91946703 -0.32523859 0
5.0763464 -0.59994531 -0.30817431 0
5.132452 -0.36281002 -0.29722562 0
5.040472 0.31126729 -0.34425694 0
5.0554786 0.46141011 -0.33796257 0
5.0655518 0.82636261 -0.28991055 0
5.3869424 1.8410419 -0.22717315 0
5.4027009 2.0497823 -0.23309362 0
5.3676829 2.3478706 -0.23111047 0
5.3457799 2.7599878 -0.24055338 0
5.3079672 3.0609045 -0.24692972 0
5.6164045 3.5859909 -0.19782984 0
5.5223551 3.8546185 -0.19600302 0
5.7492437 5.1008286 -0.15889865 0
5.6869516 5.3357 -0.16674356 0
5.9028454 7.1012464 -0.13089049 0
6.2405863 9.604907 -0.084546611 0
4.1450286 -6.1622581 -0.44187677 0
4.3119264 -4.1979446 -0.37841028 0
4.3287044 -2.9879937 -0.35842276 0
4.4723897 -2.7188649 -0.33808288 0
4.4767289 -1.9755895 -0.36571726 0
4.5467048 -1.8141032 -0.35403618 0
4.664856 -1.4861436 -0.32924178 0
4.7696471 -1.2618796 -0.3197864 0
4.538425 -0.76836348 -0.32748687 0
4.6796236 -0.46934724 -0.32478878 0
4.7238369 -0.17326522 -0.30339924 0
4.7923717 0.032500327 -0.30150306 0
4.7978778 0.32758129 -0.27866602 0
4.9425516 0.65349019 -0.2652739 0
4.8667173 0.9879874 -0.22937439 0
4.9002018 1.2011712 -0.23222061 0
4.9967542 1.4955736 -0.2539134 0
4.9897075 1.7540634 -0.25189763 0
5.2115579 2.5029187 -0.19895127 0
